-59.479356313807166 -58.19629722814611 -54.88134125981027 -49.75565268887833 -43.09689293259643 -35.22606518916318 -26.49331728520209 -17.263298637289196 -7.900658631590866 1.243757714178799 9.845513046633844 17.61754602326795 24.319154885070972 29.762740786722148 33.818155828082126 36.41460290157783 37.540134200473005 37.23888859010666 35.60629151267363 32.78251170696368 28.944524456502634 24.297169730676313 19.063614609524727 13.475632703665642 7.764099553603209 2.150073556412364 -3.1632112397695136 -7.997168680129514 -12.203291676075851 -15.667050872576297 -18.310191602858275 -20.091430095958913 -21.00561638428228 -21.081491500306083 -20.378218095038186 -18.980904768537446 -16.995373917383592 -14.5424400808428 -11.751970482105298 -8.756992140854363 -5.688091516395801 -2.668324512156722 0.191181414436071 2.7947933109723855 5.065012983650143 6.944144692156219 8.394989999978886 9.400613124843783 9.963259074036186 10.102539550973633 9.853026899297227 9.261413430669652 8.383402008982985 7.280493807625758 6.016831192403948 4.65623855007409 3.259582730605475 1.8825489917133995 0.5738994831869494 -0.6257489755734335 -1.6846211523273125 -2.5799753456620245 -3.2978378431923163 -3.832347576313656 -4.184794292207854 -4.36244340423898 -4.377244474370219 -4.244518111896228 -3.9817083494762824 -3.607274979580056 -3.1397838484869824 -2.5972338480667783 -1.9966385803156859 -1.3538597133573866 -0.683669199814932 0.0 0.683669199814932 1.3538597133573866 1.9966385803156859 2.5972338480667783 3.1397838484869824 3.607274979580056 3.9817083494762824 4.244518111896228 4.377244474370219 4.36244340423898 4.184794292207854 3.832347576313656 3.2978378431923163 2.5799753456620245 1.6846211523273125 0.6257489755734335 -0.5738994831869494 -1.8825489917133995 -3.259582730605475 -4.65623855007409 -6.016831192403948 -7.280493807625758 -8.383402008982985 -9.261413430669652 -9.853026899297227 -10.102539550973633 -9.963259074036186 -9.400613124843783 -8.394989999978886 -6.944144692156219 -5.065012983650143 -2.7947933109723855 -0.191181414436071 2.668324512156722 5.688091516395801 8.756992140854363 11.751970482105298 14.5424400808428 16.995373917383592 18.980904768537446 20.378218095038186 21.081491500306083 21.00561638428228 20.091430095958913 18.310191602858275 15.667050872576297 12.203291676075851 7.997168680129514 3.1632112397695136 -2.150073556412364 -7.764099553603209 -13.475632703665642 -19.063614609524727 -24.297169730676313 -28.944524456502634 -32.78251170696368 -35.60629151267363 -37.23888859010666 -37.540134200473005 -36.41460290157783 -33.818155828082126 -29.762740786722148 -24.319154885070972 -17.61754602326795 -9.845513046633844 -1.243757714178799 7.900658631590866 17.263298637289196 26.49331728520209 35.22606518916318 43.09689293259643 49.75565268887833 54.88134125981027 58.19629722814611
-39.179842369466286 -46.317691478973586 -51.262586251929484 -53.922330242511656 -54.302630174297235 -52.50218985182813 -48.70413350001025 -43.164289578390346 -36.19697725977522 -28.159016359475523 -19.43272545323214 -10.408681736565192 -1.4689909330914621 7.0282412060262525 14.76262872097971 21.462916720017397 26.91570854020012 30.9712683146222 33.54629790150402 34.62372450279058 34.249664574361596 32.52784538900487 29.611863279554967 25.695733600418695 21.003239374682202 15.776612215791724 10.265080410346515 4.71379616426937 -0.6463908500781042 -5.60791023876223 -9.993873267112598 -13.663665625951555 -16.516590731188806 -18.49352037103039 -19.576602884506077 -19.787164932467636 -19.182017664646164 -17.848438752260606 -15.898146214907682 -13.460606970881637 -10.676032229180322 -7.6884037437167425 -4.6388509027141955 -1.6596606770710296 1.130846772346126 3.632401476586036 5.765713046524729 7.474196992408288 8.724511064507096 9.505972095548849 9.82897381529717 9.722566582237805 9.231389423754884 8.412162333183321 7.329952245998276 6.054419962463426 4.65623855007409 3.203848009454732 1.7606781929648672 0.3829343808849254 -0.8820000503741701 -1.9965293749291944 -2.9332028056641315 -3.674519702198261 -4.212266263900064 -4.546487134128409 -4.684207104524119 -4.638021518112584 -4.424669287648186 -4.063690414817107 -3.57625168543356 -2.984201338142015 -2.3093877161856944 -1.5732501029269481 -0.7966640164881954 0.0 0.7966640164881954 1.5732501029269481 2.3093877161856944 2.984201338142015 3.57625168543356 4.063690414817107 4.424669287648186 4.638021518112584 4.684207104524119 4.546487134128409 4.212266263900064 3.674519702198261 2.9332028056641315 1.9965293749291944 0.8820000503741701 -0.3829343808849254 -1.7606781929648672 -3.203848009454732 -4.65623855007409 -6.054419962463426 -7.329952245998276 -8.412162333183321 -9.231389423754884 -9.722566582237805 -9.82897381529717 -9.505972095548849 -8.724511064507096 -7.474196992408288 -5.765713046524729 -3.632401476586036 -1.130846772346126 1.6596606770710296 4.6388509027141955 7.6884037437167425 10.676032229180322 13.460606970881637 15.898146214907682 17.848438752260606 19.182017664646164 19.787164932467636 19.576602884506077 18.49352037103039 16.516590731188806 13.663665625951555 9.993873267112598 5.60791023876223 0.6463908500781042 -4.71379616426937 -10.265080410346515 -15.776612215791724 -21.003239374682202 -25.695733600418695 -29.611863279554967 -32.52784538900487 -34.249664574361596 -34.62372450279058 -33.54629790150402 -30.9712683146222 -26.91570854020012 -21.462916720017397 -14.76262872097971 -7.0282412060262525 1.4689909330914621 10.408681736565192 19.43272545323214 28.159016359475523 36.19697725977522 43.164289578390346 48.70413350001025 52.50218985182813 54.302630174297235 53.922330242511656 51.262586251929484 46.317691478973586
2.5491972359248822 -9.891722707017378 -21.2929306223394 -31.20004499623322 -39.24758954265997 -45.17133825134407 -48.81543767302382 -50.134215299971515 -49.18883584127008 -46.139201553037964 -41.23169816483787 -34.78355575512841 -27.164717736373703 -18.778186863822402 -10.03984331845654 -1.3587073382062056 6.881449188576524 14.338345992884351 20.724637765799464 25.81806894895105 29.468033106213454 31.59841777148154 32.20679999353319 31.36022982686911 29.18799088787503 25.871852300766815 21.634420008521452 16.726254425944745 11.412444543645421 5.959316484856357 0.6219095444426679 -4.367221182003037 -8.807414147386007 -12.537176530880885 -15.439105234414374 -17.442363714081804 -18.522751747765668 -18.70052304850681 -18.03620862680487 -16.62478749576365 -14.588607448457424 -12.069495313671148 -9.220507796856175 -6.197761568144916 -3.1527467383149155 -0.22547440549514156 2.4612594524780236 4.80629024389531 6.733061948284032 8.191130795121477 9.15624169992747 9.629096097776833 9.632990388277573 9.21055035082577 8.41981694604311 7.329952245998276 6.016831192403948 4.558766762129396 3.032585029430095 1.5102253103000391 0.055992267465212756 -1.2754650026776784 -2.440423813313757 -3.4066342997158787 -4.153209662694224 -4.6699626735704065 -4.956314909593371 -5.019918171100285 -4.875129313910147 -4.541470929386761 -4.042192231268119 -3.403019058266828 -2.651151410740213 -1.8145340161150876 -0.9213927573197601 0.0 0.9213927573197601 1.8145340161150876 2.651151410740213 3.403019058266828 4.042192231268119 4.541470929386761 4.875129313910147 5.019918171100285 4.956314909593371 4.6699626735704065 4.153209662694224 3.4066342997158787 2.440423813313757 1.2754650026776784 -0.055992267465212756 -1.5102253103000391 -3.032585029430095 -4.558766762129396 -6.016831192403948 -7.329952245998276 -8.41981694604311 -9.21055035082577 -9.632990388277573 -9.629096097776833 -9.15624169992747 -8.191130795121477 -6.733061948284032 -4.80629024389531 -2.4612594524780236 0.22547440549514156 3.1527467383149155 6.197761568144916 9.220507796856175 12.069495313671148 14.588607448457424 16.62478749576365 18.03620862680487 18.70052304850681 18.522751747765668 17.442363714081804 15.439105234414374 12.537176530880885 8.807414147386007 4.367221182003037 -0.6219095444426679 -5.959316484856357 -11.412444543645421 -16.726254425944745 -21.634420008521452 -25.871852300766815 -29.18799088787503 -31.36022982686911 -32.20679999353319 -31.59841777148154 -29.468033106213454 -25.81806894895105 -20.724637765799464 -14.338345992884351 -6.881449188576524 1.3587073382062056 10.03984331845654 18.778186863822402 27.164717736373703 34.78355575512841 41.23169816483787 46.139201553037964 49.18883584127008 50.134215299971515 48.81543767302382 45.17133825134407 39.24758954265997 31.20004499623322 21.2929306223394 9.891722707017378
43.48296656532973 32.26420103662986 20.043825379695885 7.462115745493739 -4.8537056118339 -16.31989232718852 -26.422998071271763 -34.74191351402507 -40.9642241640318 -44.8963274186491 -46.467091797691545 -45.72518182439703 -42.830490830868904 -38.040405435227996 -31.691856515211885 -24.18028234064305 -15.936733871674074 -7.404387606945276 0.9843009427664077 8.828665260944783 15.778129530519111 21.546950790706923 25.924834844368196 28.78310421392155 30.076345968234357 29.83970776347299 28.182229543084528 25.27678535055026 21.347356191167805 16.65445500671707 11.479575574822812 6.109538331403888 0.8215602804691295 -4.1302117026263465 -8.526087689296057 -12.189674299864313 -14.993865573065541 -16.86385599695637 -17.777215672034774 -17.761224107144724 -16.88779511695794 -15.266434277092662 -13.03574786269211 -10.3540656609112 -7.389749108621524 -4.311732471025161 -1.2807916616162784 1.5580422579510544 4.081603788101647 6.193034290143065 7.824442210575646 8.937790063678019 9.524116672974108 9.601289570769634 9.21055035082577 8.412162333183321 7.280493807625758 5.898871555581544 4.35451990609586 2.733863093229134 1.1184169714756331 -0.41856527852340947 -1.8145950955823091 -3.0195660221287115 -3.996516267739163 -4.721618998306407 -5.183524447342225 -5.38220565791415 -5.327472677127204 -5.03731852061498 -4.536245462712707 -3.853694394494848 -3.022666080229029 -2.078584589522079 -1.0584136719422164 0.0 1.0584136719422164 2.078584589522079 3.022666080229029 3.853694394494848 4.536245462712707 5.03731852061498 5.327472677127204 5.38220565791415 5.183524447342225 4.721618998306407 3.996516267739163 3.0195660221287115 1.8145950955823091 0.41856527852340947 -1.1184169714756331 -2.733863093229134 -4.35451990609586 -5.898871555581544 -7.280493807625758 -8.412162333183321 -9.21055035082577 -9.601289570769634 -9.524116672974108 -8.937790063678019 -7.824442210575646 -6.193034290143065 -4.081603788101647 -1.5580422579510544 1.2807916616162784 4.311732471025161 7.389749108621524 10.3540656609112 13.03574786269211 15.266434277092662 16.88779511695794 17.761224107144724 17.777215672034774 16.86385599695637 14.993865573065541 12.189674299864313 8.526087689296057 4.1302117026263465 -0.8215602804691295 -6.109538331403888 -11.479575574822812 -16.65445500671707 -21.347356191167805 -25.27678535055026 -28.182229543084528 -29.83970776347299 -30.076345968234357 -28.78310421392155 -25.924834844368196 -21.546950790706923 -15.778129530519111 -8.828665260944783 -0.9843009427664077 7.404387606945276 15.936733871674074 24.18028234064305 31.691856515211885 38.040405435227996 42.830490830868904 45.72518182439703 46.467091797691545 44.8963274186491 40.9642241640318 34.74191351402507 26.422998071271763 16.31989232718852 4.8537056118339 -7.462115745493739 -20.043825379695885 -32.26420103662986
61.51455144744622 58.05082252639357 51.72121614625763 42.99735511947043 32.45592248664289 20.742657238919676 8.53428252874668 -3.499451746970108 -14.731534820009097 -24.60940811785764 -32.681074471536505 -38.61443538905861 -42.209119310507766 -43.40051632947121 -42.25618247561288 -38.96519419134706 -33.821398793438874 -27.201801149240023 -19.541537036995994 -11.307001650035296 -2.9687250584339218 5.024481671382328 12.268737277678548 18.42450732415576 23.231352690646283 26.5174463713125 28.203622858794155 28.302047931535952 26.909897730312146 24.19869826879572 20.40018672220155 15.789704458291379 10.668213416381816 5.34404094633384 0.11540654247814945 -4.745326271194272 -9.004888502630264 -12.479245608232956 -15.040267684863869 -16.61878520040958 -17.204106116781812 -16.840272155211792 -15.619504088010988 -13.673419708358617 -11.162697790142172 -8.265904233107369 -5.168193095133346 -2.0505486216623607 0.9198495182458896 3.597668997047813 5.865540554341441 7.638055826148253 8.863601100146738 9.524116672974108 9.632990388277573 9.231389423754884 8.383402008982985 7.170398212283159 5.685026160910738 4.025239062742429 2.2887030058215534 0.5678709926637701 -1.054068730362683 -2.5062455353306246 -3.7321189643047217 -4.69048578459157 -5.355580784294377 -5.716419167184018 -5.7755588469556365 -5.547472446603831 -5.056712229043286 -4.336028829198194 -3.4245700403541863 -2.36624341012622 -1.2082808747364981 0.0 1.2082808747364981 2.36624341012622 3.4245700403541863 4.336028829198194 5.056712229043286 5.547472446603831 5.7755588469556365 5.716419167184018 5.355580784294377 4.69048578459157 3.7321189643047217 2.5062455353306246 1.054068730362683 -0.5678709926637701 -2.2887030058215534 -4.025239062742429 -5.685026160910738 -7.170398212283159 -8.383402008982985 -9.231389423754884 -9.632990388277573 -9.524116672974108 -8.863601100146738 -7.638055826148253 -5.865540554341441 -3.597668997047813 -0.9198495182458896 2.0505486216623607 5.168193095133346 8.265904233107369 11.162697790142172 13.673419708358617 15.619504088010988 16.840272155211792 17.204106116781812 16.61878520040958 15.040267684863869 12.479245608232956 9.004888502630264 4.745326271194272 -0.11540654247814945 -5.34404094633384 -10.668213416381816 -15.789704458291379 -20.40018672220155 -24.19869826879572 -26.909897730312146 -28.302047931535952 -28.203622858794155 -26.5174463713125 -23.231352690646283 -18.42450732415576 -12.268737277678548 -5.024481671382328 2.9687250584339218 11.307001650035296 19.541537036995994 27.201801149240023 33.821398793438874 38.96519419134706 42.25618247561288 43.40051632947121 42.209119310507766 38.61443538905861 32.681074471536505 24.60940811785764 14.731534820009097 3.499451746970108 -8.53428252874668 -20.742657238919676 -32.45592248664289 -42.99735511947043 -51.72121614625763 -58.05082252639357
46.56871917231163 53.646225987100266 57.34005254417794 57.59995568817594 54.57657365897951 48.60317075892319 40.16749243350493 29.87585505468879 18.41196290797107 6.493146587292543 -5.173252846896309 -15.930765334116957 -25.209636356956505 -32.55574427758217 -37.65120782370208 -40.32586874869784 -40.559424903585125 -38.47456450572072 -34.32197863570056 -28.458575923084954 -21.3205672646071 -13.39331301900834 -5.179922379359225 2.829435210944079 10.185695484698428 16.50498295769338 21.487389225895246 24.929615212074946 26.73106942556261 26.893439121671292 25.514151344029436 22.774492396191633 18.92343782759084 14.258446395887322 9.104582541649092 3.7933507594120366 -1.3574440248419566 -6.061643802574716 -10.079538605162968 -13.228826752175635 -15.391326334669928 -16.515324051947946 -16.613729291233685 -15.758453345144973 -14.071641395573844 -11.714537670413494 -8.874855639657863 -5.753553401144756 -2.5518820220621024 0.540512002813283 3.3557801333690995 5.755874493506716 7.638055826148253 8.937790063678019 9.629096097776833 9.722566582237805 9.261413430669652 8.31598342850869 6.977243525245029 5.349749533888522 3.544588750791765 1.6727316205905707 -0.1608527691594149 -1.8620593175599978 -3.351333626470878 -4.56613110052578 -5.462189337315948 -6.0137310315860795 -6.212770013737975 -6.067725090933121 -5.60155490666303 -4.849614084341909 -3.8574003310331175 -2.678319218140601 -1.3715441544845663 0.0 1.3715441544845663 2.678319218140601 3.8574003310331175 4.849614084341909 5.60155490666303 6.067725090933121 6.212770013737975 6.0137310315860795 5.462189337315948 4.56613110052578 3.351333626470878 1.8620593175599978 0.1608527691594149 -1.6727316205905707 -3.544588750791765 -5.349749533888522 -6.977243525245029 -8.31598342850869 -9.261413430669652 -9.722566582237805 -9.629096097776833 -8.937790063678019 -7.638055826148253 -5.755874493506716 -3.3557801333690995 -0.540512002813283 2.5518820220621024 5.753553401144756 8.874855639657863 11.714537670413494 14.071641395573844 15.758453345144973 16.613729291233685 16.515324051947946 15.391326334669928 13.228826752175635 10.079538605162968 6.061643802574716 1.3574440248419566 -3.7933507594120366 -9.104582541649092 -14.258446395887322 -18.92343782759084 -22.774492396191633 -25.514151344029436 -26.893439121671292 -26.73106942556261 -24.929615212074946 -21.487389225895246 -16.50498295769338 -10.185695484698428 -2.829435210944079 5.179922379359225 13.39331301900834 21.3205672646071 28.458575923084954 34.32197863570056 38.47456450572072 40.559424903585125 40.32586874869784 37.65120782370208 32.55574427758217 25.209636356956505 15.930765334116957 5.173252846896309 -6.493146587292543 -18.41196290797107 -29.87585505468879 -40.16749243350493 -48.60317075892319 -54.57657365897951 -57.59995568817594 -57.34005254417794 -53.646225987100266
6.211971681178011 20.894742532831064 33.59698732188886 43.62484916496666 50.48439089014219 53.9033368021157 53.837727347407444 50.46375434875793 44.15598779939629 35.454027903406015 25.020269570678302 13.591915579757735 1.930598763903546 -9.227031767800131 -19.2146294463364 -27.474661246638185 -33.58797360744974 -37.2929637648796 -38.493656257883224 -37.25674264768407 -33.79835916251489 -28.462006544192903 -21.689521318244317 -13.987360655958879 -5.890648083200382 2.0725592922250216 9.414471681728914 15.71622076823274 20.650365414942 23.996144108209823 25.64691193404843 25.60974918976352 23.997747252357584 21.015931705723197 16.942145805134583 12.104469717288477 6.856881895133993 1.5548766823548343 -3.4673563384858452 -7.916796101494144 -11.55739314445256 -14.221055475824361 -15.813436163502292 -16.314517486819568 -15.774336636703254 -14.304499645814769 -12.066365686308671 -9.256941175947738 -6.0935967589895625 -2.7987110450224804 0.4147402068444602 3.3557801333690995 5.865540554341441 7.824442210575646 9.15624169992747 9.82897381529717 9.853026899297227 9.27676081664177 8.180202734209253 6.6674299836628474 4.858271209309922 2.8799302993317784 0.8590693681690605 -1.0852128619803787 -2.8471910007103944 -4.338923044753685 -5.493196770028724 -6.265059270828948 -6.632065281930335 -6.5934418614528 -6.1684000258113105 -5.393829012618617 -4.321589738547938 -3.015586637820437 -1.5487487849333135 0.0 1.5487487849333135 3.015586637820437 4.321589738547938 5.393829012618617 6.1684000258113105 6.5934418614528 6.632065281930335 6.265059270828948 5.493196770028724 4.338923044753685 2.8471910007103944 1.0852128619803787 -0.8590693681690605 -2.8799302993317784 -4.858271209309922 -6.6674299836628474 -8.180202734209253 -9.27676081664177 -9.853026899297227 -9.82897381529717 -9.15624169992747 -7.824442210575646 -5.865540554341441 -3.3557801333690995 -0.4147402068444602 2.7987110450224804 6.0935967589895625 9.256941175947738 12.066365686308671 14.304499645814769 15.774336636703254 16.314517486819568 15.813436163502292 14.221055475824361 11.55739314445256 7.916796101494144 3.4673563384858452 -1.5548766823548343 -6.856881895133993 -12.104469717288477 -16.942145805134583 -21.015931705723197 -23.997747252357584 -25.60974918976352 -25.64691193404843 -23.996144108209823 -20.650365414942 -15.71622076823274 -9.414471681728914 -2.0725592922250216 5.890648083200382 13.987360655958879 21.689521318244317 28.462006544192903 33.79835916251489 37.25674264768407 38.493656257883224 37.2929637648796 33.58797360744974 27.474661246638185 19.2146294463364 9.227031767800131 -1.930598763903546 -13.591915579757735 -25.020269570678302 -35.454027903406015 -44.15598779939629 -50.46375434875793 -53.837727347407444 -53.9033368021157 -50.48439089014219 -43.62484916496666 -33.59698732188886 -20.894742532831064
-38.15506719103206 -23.41445723576316 -7.810971389229979 7.5707565963124654 21.711887990771814 33.7254781773744 42.91049548242883 48.790594196660265 51.13567676179896 49.96556422122127 45.53636786411146 38.31132938681332 28.918893610727302 18.10153460421174 6.659330495860444 -4.607546172324152 -14.9533850681599 -23.734911184165977 -30.449686575691906 -34.762774198795235 -36.52043039780344 -35.75056556776586 -32.65065414218679 -27.564619773680814 -20.95091399577912 -13.344505089614117 -5.315772710803693 2.570645405065047 9.794177178897321 15.91129738603244 20.58117660165306 23.582643728595702 24.821803600232677 24.330353188413554 22.25529712194516 18.84133043638948 14.407597787020677 9.320829145765467 3.9669801876422346 -1.2765281912199644 -6.066059868261185 -10.112901095349043 -13.199088646613804 -15.187195542256587 -16.023826409249494 -15.737043123103776 -14.428359822815844 -12.2602870747151 -9.440648051844214 -6.205024095826384 -2.7987110450224804 0.540512002813283 3.597668997047813 6.193034290143065 8.191130795121477 9.505972095548849 10.102539550973633 9.99475522827284 9.240434771885466 7.9338680967195545 6.196773094247607 4.168397586300187 1.9955124598887835 -0.1770460009539869 -2.214750828758193 -4.000290645334562 -5.438778483533284 -6.461184048355622 -7.02604118438331 -7.1195850480373615 -6.754542879774523 -5.9678372525239025 -4.8174640215228095 -3.3787849373374104 -1.7404353363098903 0.0 1.7404353363098903 3.3787849373374104 4.8174640215228095 5.9678372525239025 6.754542879774523 7.1195850480373615 7.02604118438331 6.461184048355622 5.438778483533284 4.000290645334562 2.214750828758193 0.1770460009539869 -1.9955124598887835 -4.168397586300187 -6.196773094247607 -7.9338680967195545 -9.240434771885466 -9.99475522827284 -10.102539550973633 -9.505972095548849 -8.191130795121477 -6.193034290143065 -3.597668997047813 -0.540512002813283 2.7987110450224804 6.205024095826384 9.440648051844214 12.2602870747151 14.428359822815844 15.737043123103776 16.023826409249494 15.187195542256587 13.199088646613804 10.112901095349043 6.066059868261185 1.2765281912199644 -3.9669801876422346 -9.320829145765467 -14.407597787020677 -18.84133043638948 -22.25529712194516 -24.330353188413554 -24.821803600232677 -23.582643728595702 -20.58117660165306 -15.91129738603244 -9.794177178897321 -2.570645405065047 5.315772710803693 13.344505089614117 20.95091399577912 27.564619773680814 32.65065414218679 35.75056556776586 36.52043039780344 34.762774198795235 30.449686575691906 23.734911184165977 14.9533850681599 4.607546172324152 -6.659330495860444 -18.10153460421174 -28.918893610727302 -38.31132938681332 -45.53636786411146 -49.96556422122127 -51.13567676179896 -48.790594196660265 -42.91049548242883 -33.7254781773744 -21.711887990771814 -7.5707565963124654 7.810971389229979 23.41445723576316
-62.6202655888477 -56.13052745734145 -45.9276499837553 -32.919443179319224 -18.174811326781025 -2.8382930966456033 11.95701283701434 25.171626917207494 35.931121551586905 43.58202397717358 47.72878291919237 48.24996288115433 45.29346544631095 39.2521515293121 30.722635879840833 20.451147791189733 9.27112772970692 -1.9623839526049074 -12.436523686248036 -21.437897584078524 -28.399466172612183 -32.934081201415594 -34.85289137927405 -34.16806558856911 -31.08049108075385 -25.95419913335184 -19.28017381289113 -11.632851771664459 -3.6229857783290544 4.149390523971762 11.138382881265319 16.889007016833514 21.064957936257642 23.46584912252114 24.033283605352484 22.846004798248586 20.105187628241758 16.111611176307484 11.236957960207867 5.8917838839714385 0.4927863949071261 -4.568126158512664 -8.950770247456585 -12.387891718249941 -14.699462666935267 -15.799505018666448 -15.69548553403959 -14.480888590149908 -12.322045141962237 -9.440648051844214 -6.0935967589895625 -2.5518820220621024 0.9198495182458896 4.081603788101647 6.733061948284032 8.724511064507096 9.963259074036186 10.415488996164715 10.103851695525226 9.101381863423402 7.522530927225906 5.5122343202218165 3.2339682932582776 0.8577102233947989 -1.4513905460847318 -3.5429792071384494 -5.289630087735346 -6.592870843974958 -7.386998083646826 -7.640741537549509 -7.35695411801301 -6.57058566129286 -5.345239346851653 -3.7686168188173204 -1.9471394878284676 0.0 1.9471394878284676 3.7686168188173204 5.345239346851653 6.57058566129286 7.35695411801301 7.640741537549509 7.386998083646826 6.592870843974958 5.289630087735346 3.5429792071384494 1.4513905460847318 -0.8577102233947989 -3.2339682932582776 -5.5122343202218165 -7.522530927225906 -9.101381863423402 -10.103851695525226 -10.415488996164715 -9.963259074036186 -8.724511064507096 -6.733061948284032 -4.081603788101647 -0.9198495182458896 2.5518820220621024 6.0935967589895625 9.440648051844214 12.322045141962237 14.480888590149908 15.69548553403959 15.799505018666448 14.699462666935267 12.387891718249941 8.950770247456585 4.568126158512664 -0.4927863949071261 -5.8917838839714385 -11.236957960207867 -16.111611176307484 -20.105187628241758 -22.846004798248586 -24.033283605352484 -23.46584912252114 -21.064957936257642 -16.889007016833514 -11.138382881265319 -4.149390523971762 3.6229857783290544 11.632851771664459 19.28017381289113 25.95419913335184 31.08049108075385 34.16806558856911 34.85289137927405 32.934081201415594 28.399466172612183 21.437897584078524 12.436523686248036 1.9623839526049074 -9.27112772970692 -20.451147791189733 -30.722635879840833 -39.2521515293121 -45.29346544631095 -48.24996288115433 -47.72878291919237 -43.58202397717358 -35.931121551586905 -25.171626917207494 -11.95701283701434 2.8382930966456033 18.174811326781025 32.919443179319224 45.9276499837553 56.13052745734145
-53.621259873775834 -59.81057694983975 -61.118201245908985 -57.66874592332866 -49.95097830850145 -38.762812164672674 -25.134496159245884 -10.237071613631114 4.715973947253502 18.565750409223742 30.29607607433077 39.106093580791885 44.46237297133382 46.12735990006563 44.163067055878464 38.910938752213085 30.95067827332361 21.042372535755902 10.05736875267422 -1.0960172531506396 -11.545778208443863 -20.522696264189015 -27.415093512733336 -31.808120777911277 -33.50529492406785 -32.53154556101954 -29.118559409046853 -23.67459117739395 -16.742038563535584 -8.946877158281682 -0.9444713964417297 6.633693234743044 13.22815405681015 18.39095322391034 21.813833632479135 23.343597062967408 22.98420659807099 20.88631286334432 17.32585647644245 12.674174574122066 7.362565706671209 1.8445171639314024 -3.4412306579267318 -8.103895831085804 -11.827759640595405 -14.39144561220666 -15.678410816137733 -15.67846741403225 -14.480888590149908 -12.2602870747151 -9.256941175947738 -5.753553401144756 -2.0505486216623607 1.5580422579510544 4.80629024389531 7.474196992408288 9.400613124843783 10.490696633566106 10.717840865832143 10.120437425541805 8.7941995436531 6.881033629561889 4.5555996556698135 2.0107447459948826 -0.5570611427407139 -2.9612952473782013 -5.037160118383308 -6.650999044715882 -7.707011968165441 -8.151154258024222 -7.972288315606643 -7.200803537412039 -5.905019941368914 -4.1857472396165605 -2.1693918412282924 0.0 2.1693918412282924 4.1857472396165605 5.905019941368914 7.200803537412039 7.972288315606643 8.151154258024222 7.707011968165441 6.650999044715882 5.037160118383308 2.9612952473782013 0.5570611427407139 -2.0107447459948826 -4.5555996556698135 -6.881033629561889 -8.7941995436531 -10.120437425541805 -10.717840865832143 -10.490696633566106 -9.400613124843783 -7.474196992408288 -4.80629024389531 -1.5580422579510544 2.0505486216623607 5.753553401144756 9.256941175947738 12.2602870747151 14.480888590149908 15.67846741403225 15.678410816137733 14.39144561220666 11.827759640595405 8.103895831085804 3.4412306579267318 -1.8445171639314024 -7.362565706671209 -12.674174574122066 -17.32585647644245 -20.88631286334432 -22.98420659807099 -23.343597062967408 -21.813833632479135 -18.39095322391034 -13.22815405681015 -6.633693234743044 0.9444713964417297 8.946877158281682 16.742038563535584 23.67459117739395 29.118559409046853 32.53154556101954 33.50529492406785 31.808120777911277 27.415093512733336 20.522696264189015 11.545778208443863 1.0960172531506396 -10.05736875267422 -21.042372535755902 -30.95067827332361 -38.910938752213085 -44.163067055878464 -46.12735990006563 -44.46237297133382 -39.106093580791885 -30.29607607433077 -18.565750409223742 -4.715973947253502 10.237071613631114 25.134496159245884 38.762812164672674 49.95097830850145 57.66874592332866 61.118201245908985 59.81057694983975
-15.44197989975282 -31.99712147625637 -45.16001495586713 -53.99658152023426 -57.97559772386722 -56.99471935903942 -51.36923956834478 -41.78622151242636 -29.229471504175468 -14.883050750794737 -0.02249701410691607 14.096451276151404 26.342081773375654 35.795391503971935 41.81646353503401 44.08400308670082 42.60601077260175 37.70213443597787 29.960632995366783 20.174907322734143 9.266047635811361 -1.8012891546388075 -12.102168604119575 -20.82679706630406 -27.342080383133865 -31.234843805079656 -32.33404955605295 -30.711295779312604 -26.66078316646941 -20.661630104881258 -13.326767411222736 -5.343551035469603 2.588358705640639 9.816397190923453 15.786882130802862 20.08524600318618 22.4620093252519 22.843184007622476 21.32521666420884 18.155902488933958 13.703811521903619 8.41958668151674 2.7929442108444165 -2.6906861724315285 -7.590186725172975 -11.542294295730812 -14.28629202646196 -15.678410816137733 -15.69548553403959 -14.428359822815844 -12.066365686308671 -8.874855639657863 -5.168193095133346 -1.2807916616162784 2.4612594524780236 5.765713046524729 8.394989999978886 10.181031251473112 11.033500916284343 10.941270246828084 9.967660476773068 8.240372724984205 5.937356744122676 3.2700541039742306 0.46549682520414415 -2.2513361879035747 -4.673681177727053 -6.626694568473776 -7.978011096248885 -8.644757198387804 -8.596894502385517 -7.857002642174042 -6.496795964716793 -4.630802265891331 -2.407717735382715 0.0 2.407717735382715 4.630802265891331 6.496795964716793 7.857002642174042 8.596894502385517 8.644757198387804 7.978011096248885 6.626694568473776 4.673681177727053 2.2513361879035747 -0.46549682520414415 -3.2700541039742306 -5.937356744122676 -8.240372724984205 -9.967660476773068 -10.941270246828084 -11.033500916284343 -10.181031251473112 -8.394989999978886 -5.765713046524729 -2.4612594524780236 1.2807916616162784 5.168193095133346 8.874855639657863 12.066365686308671 14.428359822815844 15.69548553403959 15.678410816137733 14.28629202646196 11.542294295730812 7.590186725172975 2.6906861724315285 -2.7929442108444165 -8.41958668151674 -13.703811521903619 -18.155902488933958 -21.32521666420884 -22.843184007622476 -22.4620093252519 -20.08524600318618 -15.786882130802862 -9.816397190923453 -2.588358705640639 5.343551035469603 13.326767411222736 20.661630104881258 26.66078316646941 30.711295779312604 32.33404955605295 31.234843805079656 27.342080383133865 20.82679706630406 12.102168604119575 1.8012891546388075 -9.266047635811361 -20.174907322734143 -29.960632995366783 -37.70213443597787 -42.60601077260175 -44.08400308670082 -41.81646353503401 -35.795391503971935 -26.342081773375654 -14.096451276151404 0.02249701410691607 14.883050750794737 29.229471504175468 41.78622151242636 51.36923956834478 56.99471935903942 57.97559772386722 53.99658152023426 45.16001495586713 31.99712147625637
31.788136938048247 13.219770177887161 -5.6697863050885235 -23.19527991228656 -37.86927643728585 -48.52602703509125 -54.41085573406477 -55.22855980388104 -51.14832219608504 -42.76669164337334 -31.033918323129555 -17.15201384384214 -2.4550806693136384 11.716430512785296 24.1358799266514 33.794426104725424 39.98023712535173 42.3269959832678 40.828857060837386 35.822205475349456 27.93757468798808 18.02762300096559 7.07894478316862 -3.883441628871901 -13.889887465302785 -22.10978656534197 -27.918102896028234 -30.939675160638867 -31.068528896172765 -28.46186139043418 -23.510694476634914 -16.791204877096888 -9.002272331895135 -0.895717977971129 6.794012535151366 13.414322950010874 18.447622566679797 21.549060641580013 22.566398226348515 21.541359612260155 18.69353489939799 14.38942357692323 9.10038892719111 3.3540472707301623 -2.3160968214664184 -7.418132734351619 -11.542294295730812 -14.39144561220666 -15.799505018666448 -15.737043123103776 -14.304499645814769 -11.714537670413494 -8.265904233107369 -4.311732471025161 -0.22547440549514156 3.632401476586036 6.944144692156219 9.458637327685283 11.007936572876739 11.515662878142317 10.997213823732341 9.55247046565292 7.352220241676683 4.619913427998255 1.610583537202569 -1.4112000805986722 -4.19259662509387 -6.511465060513093 -8.191856889497814 -9.115213825019907 -9.226828626087503 -8.537478027459795 -7.120441608513823 -5.10436795949112 -2.66263706201867 0.0 2.66263706201867 5.10436795949112 7.120441608513823 8.537478027459795 9.226828626087503 9.115213825019907 8.191856889497814 6.511465060513093 4.19259662509387 1.4112000805986722 -1.610583537202569 -4.619913427998255 -7.352220241676683 -9.55247046565292 -10.997213823732341 -11.515662878142317 -11.007936572876739 -9.458637327685283 -6.944144692156219 -3.632401476586036 0.22547440549514156 4.311732471025161 8.265904233107369 11.714537670413494 14.304499645814769 15.737043123103776 15.799505018666448 14.39144561220666 11.542294295730812 7.418132734351619 2.3160968214664184 -3.3540472707301623 -9.10038892719111 -14.38942357692323 -18.69353489939799 -21.541359612260155 -22.566398226348515 -21.549060641580013 -18.447622566679797 -13.414322950010874 -6.794012535151366 0.895717977971129 9.002272331895135 16.791204877096888 23.510694476634914 28.46186139043418 31.068528896172765 30.939675160638867 27.918102896028234 22.10978656534197 13.889887465302785 3.883441628871901 -7.07894478316862 -18.02762300096559 -27.93757468798808 -35.822205475349456 -40.828857060837386 -42.3269959832678 -39.98023712535173 -33.794426104725424 -24.1358799266514 -11.716430512785296 2.4550806693136384 17.15201384384214 31.033918323129555 42.76669164337334 51.14832219608504 55.22855980388104 54.41085573406477 48.52602703509125 37.86927643728585 23.19527991228656 5.6697863050885235 -13.219770177887161
62.6814949731206 52.31651548557617 37.50562078774149 19.845659361647705 1.1313955061627055 -16.824155894318164 -32.36306327333736 -44.133125282032516 -51.202392466266616 -53.12821533714557 -49.97628304201759 -42.29015152312722 -31.016516479427487 -17.39551376496616 -2.8282688454816145 11.264468711807279 23.5785756607559 33.04483847485135 38.918787626941366 40.834873273675214 38.8215844360366 33.27806505120119 24.91647778411768 14.677461133724787 3.6282448311435918 -7.14583954986714 -16.64565176775558 -24.048530557987732 -28.77666036159872 -30.538163445182455 -29.338505308387795 -25.46281297270229 -19.432487879248352 -11.94178744548799 -3.781654795332904 4.241122933231204 11.381382123894547 17.022447465414213 20.726636596746523 22.26558759330065 21.628781588224886 19.010839994212198 14.780182723841216 9.43325648862541 3.539647060080977 -2.3160968214664184 -7.590186725172975 -11.827759640595405 -14.699462666935267 -16.023826409249494 -15.774336636703254 -14.071641395573844 -11.162697790142172 -7.389749108621524 -3.1527467383149155 1.130846772346126 5.065012983650143 8.309461138491958 10.606521068452556 11.798823512352852 11.836925643680312 10.777001383725016 8.769572096098155 6.04093607011562 2.8694222983325934 -0.44117082841721217 -3.588579928832424 -6.297336142508543 -8.340428430366643 -9.555958692296777 -9.857867914907061 -9.240309674621997 -7.775713426572638 -5.6069892991849954 -2.934664082585927 0.0 2.934664082585927 5.6069892991849954 7.775713426572638 9.240309674621997 9.857867914907061 9.555958692296777 8.340428430366643 6.297336142508543 3.588579928832424 0.44117082841721217 -2.8694222983325934 -6.04093607011562 -8.769572096098155 -10.777001383725016 -11.836925643680312 -11.798823512352852 -10.606521068452556 -8.309461138491958 -5.065012983650143 -1.130846772346126 3.1527467383149155 7.389749108621524 11.162697790142172 14.071641395573844 15.774336636703254 16.023826409249494 14.699462666935267 11.827759640595405 7.590186725172975 2.3160968214664184 -3.539647060080977 -9.43325648862541 -14.780182723841216 -19.010839994212198 -21.628781588224886 -22.26558759330065 -20.726636596746523 -17.022447465414213 -11.381382123894547 -4.241122933231204 3.781654795332904 11.94178744548799 19.432487879248352 25.46281297270229 29.338505308387795 30.538163445182455 28.77666036159872 24.048530557987732 16.64565176775558 7.14583954986714 -3.6282448311435918 -14.677461133724787 -24.91647778411768 -33.27806505120119 -38.8215844360366 -40.834873273675214 -38.918787626941366 -33.04483847485135 -23.5785756607559 -11.264468711807279 2.8282688454816145 17.39551376496616 31.016516479427487 42.29015152312722 49.97628304201759 53.12821533714557 51.202392466266616 44.133125282032516 32.36306327333736 16.824155894318164 -1.1313955061627055 -19.845659361647705 -37.50562078774149 -52.31651548557617
60.21190528982043 64.54757312180628 62.23896443835102 53.81411975369755 40.39370704113389 23.551198668113877 5.133294505774346 -12.939325244290337 -28.869710571794357 -41.16071566667038 -48.75246183671435 -51.10894593169014 -48.247327143964476 -40.70960205943906 -29.482298495181276 -15.874882308632118 -1.3712938829970078 12.528909904750327 24.46307094839836 33.33634206887176 38.418713720704844 39.399969689481466 36.399121564095985 29.929722538566647 20.826918187162864 10.145712879276902 -0.957617115316445 -11.347942429781941 -20.02482262104378 -26.216070729004112 -29.44290560698747 -29.551645895243492 -26.7106184871682 -21.37459851119639 -14.222292732409018 -6.074817810664382 2.1954001865404513 9.755464120580053 15.893366113835848 20.082190031949246 22.02170712861312 21.654566159389464 19.15704714695578 14.906938784762634 9.43325648862541 3.3540472707301623 -2.6906861724315285 -8.103895831085804 -12.387891718249941 -15.187195542256587 -16.314517486819568 -15.758453345144973 -13.673419708358617 -10.3540656609112 -6.197761568144916 -1.6596606770710296 2.7947933109723855 6.735172584415835 9.805029870954376 11.751302075766615 12.44209596435965 11.87205159534712 10.155691673161405 7.510225307189656 4.230098975334268 0.6561253721260003 -2.8577438137552704 -5.976987148327135 -8.41570987615583 -9.960242021064445 -10.485527095905391 -9.963364947007943 -8.462248900549314 -6.139169137205392 -3.2243072463152083 0.0 3.2243072463152083 6.139169137205392 8.462248900549314 9.963364947007943 10.485527095905391 9.960242021064445 8.41570987615583 5.976987148327135 2.8577438137552704 -0.6561253721260003 -4.230098975334268 -7.510225307189656 -10.155691673161405 -11.87205159534712 -12.44209596435965 -11.751302075766615 -9.805029870954376 -6.735172584415835 -2.7947933109723855 1.6596606770710296 6.197761568144916 10.3540656609112 13.673419708358617 15.758453345144973 16.314517486819568 15.187195542256587 12.387891718249941 8.103895831085804 2.6906861724315285 -3.3540472707301623 -9.43325648862541 -14.906938784762634 -19.15704714695578 -21.654566159389464 -22.02170712861312 -20.082190031949246 -15.893366113835848 -9.755464120580053 -2.1954001865404513 6.074817810664382 14.222292732409018 21.37459851119639 26.7106184871682 29.551645895243492 29.44290560698747 26.216070729004112 20.02482262104378 11.347942429781941 0.957617115316445 -10.145712879276902 -20.826918187162864 -29.929722538566647 -36.399121564095985 -39.399969689481466 -38.418713720704844 -33.33634206887176 -24.46307094839836 -12.528909904750327 1.3712938829970078 15.874882308632118 29.482298495181276 40.70960205943906 48.247327143964476 51.10894593169014 48.75246183671435 41.16071566667038 28.869710571794357 12.939325244290337 -5.133294505774346 -23.551198668113877 -40.39370704113389 -53.81411975369755 -62.23896443835102 -64.54757312180628
25.074423636205463 42.92920218284983 55.437955609455614 61.50369852804531 60.767173829769824 53.61277145872065 41.09405144597103 24.79047896028503 6.613935744169226 -11.411800017155846 -27.37351905506932 -39.668830991019696 -47.163557016176725 -49.291233074692336 -46.0866826227982 -38.153161551708074 -26.56982138107559 -12.752400422029819 1.7154884321944543 15.260757875286053 26.4891398415372 34.32566490237566 38.113536485948536 37.66283487501834 33.24638129791266 25.545975937627826 15.557449910359118 4.467000480673885 -6.486268518435996 -16.145988335257673 -23.55778840210828 -28.06020463665569 -29.339004868597826 -27.441138634733647 -22.74911511170514 -15.920856810477227 -7.803522521600076 0.6678902459221747 8.575352172315396 15.114552245834185 19.67369550137854 21.887000550627604 21.65873351862359 19.15704714695578 14.780182723841216 9.10038892719111 2.7929442108444165 -3.4412306579267318 -8.950770247456585 -13.199088646613804 -15.813436163502292 -16.613729291233685 -15.619504088010988 -13.03574786269211 -9.220507796856175 -4.6388509027141955 0.191181414436071 4.7545805050186765 8.591548133940291 11.340875127968804 12.770806331939927 12.79519697384985 11.47437152522655 9.001619589148559 5.6775624995935985 1.875596303363221 -1.9977963987284053 -5.543884750819114 -8.40988006431678 -10.32117699692036 -11.105076416976654 -10.704301856306829 -9.179565245033713 -6.70136719206963 -3.532069009504065 0.0 3.532069009504065 6.70136719206963 9.179565245033713 10.704301856306829 11.105076416976654 10.32117699692036 8.40988006431678 5.543884750819114 1.9977963987284053 -1.875596303363221 -5.6775624995935985 -9.001619589148559 -11.47437152522655 -12.79519697384985 -12.770806331939927 -11.340875127968804 -8.591548133940291 -4.7545805050186765 -0.191181414436071 4.6388509027141955 9.220507796856175 13.03574786269211 15.619504088010988 16.613729291233685 15.813436163502292 13.199088646613804 8.950770247456585 3.4412306579267318 -2.7929442108444165 -9.10038892719111 -14.780182723841216 -19.15704714695578 -21.65873351862359 -21.887000550627604 -19.67369550137854 -15.114552245834185 -8.575352172315396 -0.6678902459221747 7.803522521600076 15.920856810477227 22.74911511170514 27.441138634733647 29.339004868597826 28.06020463665569 23.55778840210828 16.145988335257673 6.486268518435996 -4.467000480673885 -15.557449910359118 -25.545975937627826 -33.24638129791266 -37.66283487501834 -38.113536485948536 -34.32566490237566 -26.4891398415372 -15.260757875286053 -1.7154884321944543 12.752400422029819 26.56982138107559 38.153161551708074 46.0866826227982 49.291233074692336 47.163557016176725 39.668830991019696 27.37351905506932 11.411800017155846 -6.613935744169226 -24.79047896028503 -41.09405144597103 -53.61277145872065 -60.767173829769824 -61.50369852804531 -55.437955609455614 -42.92920218284983
-24.347746986243234 -1.8075778413684263 19.952273117048865 38.5070283010755 51.901543234413644 58.85211387424837 58.862796302058314 52.246665132304344 40.05378052273141 23.918277617554885 5.845735199769542 -12.032106264697745 -27.705682303576506 -39.510407593583274 -46.29961245421928 -47.55015033078535 -43.391779060605174 -34.560607728484385 -22.285619419052967 -8.124539823540077 6.229649269291652 19.1479291625012 29.24709296254597 35.534281811152574 37.49957099123906 35.1486923031166 28.975270403086945 19.87893432485062 9.04154721691547 -2.2220465973386756 -12.62031763128482 -21.030148117730135 -26.61477767619646 -28.90264732002307 -27.820345034410153 -23.678499617445024 -17.11492119826082 -9.003927072608207 -0.3441313328851413 7.861292202858173 14.717844642363762 19.533994220101743 21.887000550627604 21.654566159389464 19.010839994212198 14.38942357692323 8.41958668151674 1.8445171639314024 -4.568126158512664 -10.112901095349043 -14.221055475824361 -16.515324051947946 -16.840272155211792 -15.266434277092662 -12.069495313671148 -7.6884037437167425 -2.668324512156722 2.404437825184282 6.968056916714271 10.544327629693509 12.785500762945984 13.504679264310397 12.68764359870284 10.486030731582126 7.193689417961725 3.209596241457 -1.008181617274529 -4.992412869998611 -8.315403551861083 -10.631789519364283 -11.711561411443652 -11.460573140541905 -9.927058455710078 -7.293999078614235 -3.858445656069222 0.0 3.858445656069222 7.293999078614235 9.927058455710078 11.460573140541905 11.711561411443652 10.631789519364283 8.315403551861083 4.992412869998611 1.008181617274529 -3.209596241457 -7.193689417961725 -10.486030731582126 -12.68764359870284 -13.504679264310397 -12.785500762945984 -10.544327629693509 -6.968056916714271 -2.404437825184282 2.668324512156722 7.6884037437167425 12.069495313671148 15.266434277092662 16.840272155211792 16.515324051947946 14.221055475824361 10.112901095349043 4.568126158512664 -1.8445171639314024 -8.41958668151674 -14.38942357692323 -19.010839994212198 -21.654566159389464 -21.887000550627604 -19.533994220101743 -14.717844642363762 -7.861292202858173 0.3441313328851413 9.003927072608207 17.11492119826082 23.678499617445024 27.820345034410153 28.90264732002307 26.61477767619646 21.030148117730135 12.62031763128482 2.2220465973386756 -9.04154721691547 -19.87893432485062 -28.975270403086945 -35.1486923031166 -37.49957099123906 -35.534281811152574 -29.24709296254597 -19.1479291625012 -6.229649269291652 8.124539823540077 22.285619419052967 34.560607728484385 43.391779060605174 47.55015033078535 46.29961245421928 39.510407593583274 27.705682303576506 12.032106264697745 -5.845735199769542 -23.918277617554885 -40.05378052273141 -52.246665132304344 -58.862796302058314 -58.85211387424837 -51.901543234413644 -38.5070283010755 -19.952273117048865 1.8075778413684263
-61.574838827954004 -46.51597441958291 -26.560474212262502 -4.307365368157688 17.48145573515222 36.22064870423887 49.80478750352865 56.84049109155856 56.78234417926577 49.960406998016346 37.50082119307718 21.15393789889162 3.0549788134508487 -14.550698895802556 -29.58283291420922 -40.36863455936471 -45.82451684549417 -45.55805036380978 -39.88162543695282 -29.740433471171276 -16.56766140797109 -2.0880035020801997 11.904169944404305 23.763881592342905 32.185496729614165 36.34206870368887 35.95983717216897 31.322240615091296 23.206648331912586 12.765006048117634 1.3657914633623258 -9.581571256731596 -18.79771223535348 -25.27937278286228 -28.404302115478202 -27.984657798380088 -24.265375730956883 -17.87081695302728 -9.709043719720974 -0.8476370204448561 7.622424197037619 14.717844642363762 19.67369550137854 22.02170712861312 21.628781588224886 18.69353489939799 13.703811521903619 7.362565706671209 0.4927863949071261 -6.066059868261185 -11.55739314445256 -15.391326334669928 -17.204106116781812 -16.88779511695794 -14.588607448457424 -10.676032229180322 -5.688091516395801 -0.2604473185025771 4.951609897127874 9.349058906889072 12.454550154685585 13.960651625391765 13.756603387535117 11.931872324342022 8.757414344897157 4.647877766887463 0.10979865061496095 -4.317997255509611 -8.125122305193582 -10.885070113442296 -12.299824335924212 -12.229431149156792 -10.704002603830169 -7.917435376151223 -4.203927119403834 0.0 4.203927119403834 7.917435376151223 10.704002603830169 12.229431149156792 12.299824335924212 10.885070113442296 8.125122305193582 4.317997255509611 -0.10979865061496095 -4.647877766887463 -8.757414344897157 -11.931872324342022 -13.756603387535117 -13.960651625391765 -12.454550154685585 -9.349058906889072 -4.951609897127874 0.2604473185025771 5.688091516395801 10.676032229180322 14.588607448457424 16.88779511695794 17.204106116781812 15.391326334669928 11.55739314445256 6.066059868261185 -0.4927863949071261 -7.362565706671209 -13.703811521903619 -18.69353489939799 -21.628781588224886 -22.02170712861312 -19.67369550137854 -14.717844642363762 -7.622424197037619 0.8476370204448561 9.709043719720974 17.87081695302728 24.265375730956883 27.984657798380088 28.404302115478202 25.27937278286228 18.79771223535348 9.581571256731596 -1.3657914633623258 -12.765006048117634 -23.206648331912586 -31.322240615091296 -35.95983717216897 -36.34206870368887 -32.185496729614165 -23.763881592342905 -11.904169944404305 2.0880035020801997 16.56766140797109 29.740433471171276 39.88162543695282 45.55805036380978 45.82451684549417 40.36863455936471 29.58283291420922 14.550698895802556 -3.0549788134508487 -21.15393789889162 -37.50082119307718 -49.960406998016346 -56.78234417926577 -56.84049109155856 -49.80478750352865 -36.22064870423887 -17.48145573515222 4.307365368157688 26.560474212262502 46.51597441958291
-66.19077800487567 -67.58335245030673 -60.39620000245553 -45.90569407926396 -26.259105741484984 -4.164212173678426 17.47916419502044 35.95608951772349 49.07338056139281 55.41509709557023 54.48760796384105 46.74061432215483 33.46702138858582 16.599949409091817 -1.5624713251992548 -18.66602407142587 -32.60200796990915 -41.76333110112724 -45.22453480797639 -42.826387723222616 -35.15884219768202 -23.449466374309587 -9.376225792230011 5.167751942875403 18.325019633169738 28.507475887452824 34.58392444246181 35.999972305109964 32.81847397692297 25.679498629027318 15.689134168293062 4.255038477317531 -7.107509868889531 -16.972824477950873 -24.18005988666559 -27.965449208867074 -28.03712227293887 -24.586201689364582 -18.236324391890538 -9.941428220294851 -0.8476370204448561 7.861292202858173 15.114552245834185 20.082190031949246 22.26558759330065 21.541359612260155 18.155902488933958 12.674174574122066 5.8917838839714385 -1.2765281912199644 -7.916796101494144 -13.228826752175635 -16.61878520040958 -17.761224107144724 -16.62478749576365 -13.460606970881637 -8.756992140854363 -3.167853544628817 2.575022941160194 7.754442025974314 11.753747855726566 14.126461531841725 14.642316409419712 13.305573485613905 10.34492697309288 6.177585388396141 1.3528831358701465 -3.5172231553911018 -7.832347236098902 -11.07402769757206 -12.864527203900959 -13.007933528274927 -11.509549379848565 -8.572000735629151 -4.5689968055779175 0.0 4.5689968055779175 8.572000735629151 11.509549379848565 13.007933528274927 12.864527203900959 11.07402769757206 7.832347236098902 3.5172231553911018 -1.3528831358701465 -6.177585388396141 -10.34492697309288 -13.305573485613905 -14.642316409419712 -14.126461531841725 -11.753747855726566 -7.754442025974314 -2.575022941160194 3.167853544628817 8.756992140854363 13.460606970881637 16.62478749576365 17.761224107144724 16.61878520040958 13.228826752175635 7.916796101494144 1.2765281912199644 -5.8917838839714385 -12.674174574122066 -18.155902488933958 -21.541359612260155 -22.26558759330065 -20.082190031949246 -15.114552245834185 -7.861292202858173 0.8476370204448561 9.941428220294851 18.236324391890538 24.586201689364582 28.03712227293887 27.965449208867074 24.18005988666559 16.972824477950873 7.107509868889531 -4.255038477317531 -15.689134168293062 -25.679498629027318 -32.81847397692297 -35.999972305109964 -34.58392444246181 -28.507475887452824 -18.325019633169738 -5.167751942875403 9.376225792230011 23.449466374309587 35.15884219768202 42.826387723222616 45.22453480797639 41.76333110112724 32.60200796990915 18.66602407142587 1.5624713251992548 -16.599949409091817 -33.46702138858582 -46.74061432215483 -54.48760796384105 -55.41509709557023 -49.07338056139281 -35.95608951772349 -17.47916419502044 4.164212173678426 26.259105741484984 45.90569407926396 60.39620000245553 67.58335245030673
-35.014515826113104 -53.376778756579874 -63.8591854953768 -65.39777150130833 -58.16981167962369 -43.51718305273321 -23.716482267384965 -1.6334158629856719 19.68698892431737 37.436356815965766 49.408809794763094 54.26961340164174 51.694762068780825 42.36849389875852 27.84549831799694 10.302546739950015 -7.781922290058631 -23.973781216894317 -36.20698375680554 -43.0425957123048 -43.831305670986694 -38.76217730132283 -28.796583454217107 -15.501801742728114 -0.8115733779063907 13.250575128589308 24.846213133017866 32.558259757207416 35.55884967923745 33.68977793580042 27.44923514200703 17.891473896990217 6.457401320539829 -5.237581078432558 -15.62783411315851 -23.40320388037314 -27.669724444629665 -28.046288179334418 -24.68788258441781 -18.236324391890538 -9.709043719720974 -0.3441313328851413 8.575352172315396 15.893366113835848 20.726636596746523 22.566398226348515 21.32521666420884 17.32585647644245 11.236957960207867 3.9669801876422346 -3.4673563384858452 -10.079538605162968 -15.040267684863869 -17.777215672034774 -18.03620862680487 -15.898146214907682 -11.751970482105298 -6.229571443990472 -0.11298673243968953 5.77287034980568 10.667683324983606 13.969936183051873 15.306788520329722 14.572170979574281 11.929935054419685 7.783292909945769 2.7157726213720963 -2.587944518924352 -7.430948765125576 -11.191744884917016 -13.400176329475682 -13.792949696846316 -12.342727888671057 -9.257973026654433 -4.954131417919981 0.0 4.954131417919981 9.257973026654433 12.342727888671057 13.792949696846316 13.400176329475682 11.191744884917016 7.430948765125576 2.587944518924352 -2.7157726213720963 -7.783292909945769 -11.929935054419685 -14.572170979574281 -15.306788520329722 -13.969936183051873 -10.667683324983606 -5.77287034980568 0.11298673243968953 6.229571443990472 11.751970482105298 15.898146214907682 18.03620862680487 17.777215672034774 15.040267684863869 10.079538605162968 3.4673563384858452 -3.9669801876422346 -11.236957960207867 -17.32585647644245 -21.32521666420884 -22.566398226348515 -20.726636596746523 -15.893366113835848 -8.575352172315396 0.3441313328851413 9.709043719720974 18.236324391890538 24.68788258441781 28.046288179334418 27.669724444629665 23.40320388037314 15.62783411315851 5.237581078432558 -6.457401320539829 -17.891473896990217 -27.44923514200703 -33.68977793580042 -35.55884967923745 -32.558259757207416 -24.846213133017866 -13.250575128589308 0.8115733779063907 15.501801742728114 28.796583454217107 38.76217730132283 43.831305670986694 43.0425957123048 36.20698375680554 23.973781216894317 7.781922290058631 -10.302546739950015 -27.84549831799694 -42.36849389875852 -51.694762068780825 -54.26961340164174 -49.408809794763094 -37.436356815965766 -19.68698892431737 1.6334158629856719 23.716482267384965 43.51718305273321 58.16981167962369 65.39777150130833 63.8591854953768 53.376778756579874
15.817286204804638 -10.637557772540035 -34.49271393272383 -52.50411418068541 -62.38745394987234 -63.10026445481002 -54.936327803504504 -39.42698056070893 -19.071539250990853 3.0575732955725132 23.773570332191483 40.230068609778506 50.30757122000963 52.87989998693761 47.928177219586665 36.49307549487159 20.47945572746798 2.3478424084180882 -15.258323451558628 -29.893860441942614 -39.64706995726117 -43.38371215902686 -40.869545138077434 -32.75991731945883 -20.464320215679738 -5.91115714910684 8.74910974079514 21.457428016521764 30.531125038157604 34.88157040698427 34.137215026282185 28.659471067789315 19.454690672994452 8.000009659950136 -3.9879477889798176 -14.805976088709661 -23.002119922783855 -27.56582802535781 -28.046288179334418 -24.586201689364582 -17.87081695302728 -9.003927072608207 0.6678902459221747 9.755464120580053 17.022447465414213 21.549060641580013 22.843184007622476 20.88631286334432 16.111611176307484 9.320829145765467 1.5548766823548343 -6.061643802574716 -12.479245608232956 -16.86385599695637 -18.70052304850681 -17.848438752260606 -14.5424400808428 -9.343610202191016 -3.0482573365640078 3.4304322228541912 9.190941705954582 13.464633646064458 15.713979070125813 15.69597068079339 13.48399148986309 9.44708583615558 4.191076222427641 -1.529383233654356 -6.915445585410059 -11.231434481077645 -13.901148288128118 -14.581168102043511 -13.202444698563783 -9.975582525200782 -5.359800783017599 0.0 5.359800783017599 9.975582525200782 13.202444698563783 14.581168102043511 13.901148288128118 11.231434481077645 6.915445585410059 1.529383233654356 -4.191076222427641 -9.44708583615558 -13.48399148986309 -15.69597068079339 -15.713979070125813 -13.464633646064458 -9.190941705954582 -3.4304322228541912 3.0482573365640078 9.343610202191016 14.5424400808428 17.848438752260606 18.70052304850681 16.86385599695637 12.479245608232956 6.061643802574716 -1.5548766823548343 -9.320829145765467 -16.111611176307484 -20.88631286334432 -22.843184007622476 -21.549060641580013 -17.022447465414213 -9.755464120580053 -0.6678902459221747 9.003927072608207 17.87081695302728 24.586201689364582 28.046288179334418 27.56582802535781 23.002119922783855 14.805976088709661 3.9879477889798176 -8.000009659950136 -19.454690672994452 -28.659471067789315 -34.137215026282185 -34.88157040698427 -30.531125038157604 -21.457428016521764 -8.74910974079514 5.91115714910684 20.464320215679738 32.75991731945883 40.869545138077434 43.38371215902686 39.64706995726117 29.893860441942614 15.258323451558628 -2.3478424084180882 -20.47945572746798 -36.49307549487159 -47.928177219586665 -52.87989998693761 -50.30757122000963 -40.230068609778506 -23.773570332191483 -3.0575732955725132 19.071539250990853 39.42698056070893 54.936327803504504 63.10026445481002 62.38745394987234 52.50411418068541 34.49271393272383 10.637557772540035
59.17427583578389 38.67624007223248 13.317768981747305 -12.948226570422557 -36.19887334086599 -53.12272449722926 -61.48584341265572 -60.41789876618966 -50.48320264848936 -33.53524735679773 -12.385712636616837 9.654691887030673 29.289518889571173 43.72512410391163 51.06273858876546 50.53994573135842 42.59234687198952 28.734365729371014 11.285191087020284 -7.012217745514817 -23.417391348201946 -35.59832029117841 -41.957678749678166 -41.834546495205004 -35.55756505986323 -24.34875816142516 -10.099529630132194 4.9416627953747385 18.51925264781355 28.7043354919246 34.16355757599034 34.32650149299721 29.431873893989863 20.451790206940625 8.911565815330784 -3.3629914882656493 -14.529721948284312 -23.002119922783855 -27.669724444629665 -28.03712227293887 -24.265375730956883 -17.11492119826082 -7.803522521600076 2.1954001865404513 11.381382123894547 18.447622566679797 22.4620093252519 22.98420659807099 20.105187628241758 14.407597787020677 6.856881895133993 -1.3574440248419566 -9.004888502630264 -14.993865573065541 -18.522751747765668 -19.182017664646164 -16.995373917383592 -12.397149932848794 -6.15226026996508 0.7671644001591086 7.32907975148395 12.591022001095421 15.830833810366933 16.641267455074278 14.976882388252777 11.148689440372216 5.76928419354093 -0.34221696525862094 -6.281090798200986 -11.186496828086295 -14.36171719395982 -15.36910423993458 -14.087484145362875 -10.725011142806254 -5.786467678174517 0.0 5.786467678174517 10.725011142806254 14.087484145362875 15.36910423993458 14.36171719395982 11.186496828086295 6.281090798200986 0.34221696525862094 -5.76928419354093 -11.148689440372216 -14.976882388252777 -16.641267455074278 -15.830833810366933 -12.591022001095421 -7.32907975148395 -0.7671644001591086 6.15226026996508 12.397149932848794 16.995373917383592 19.182017664646164 18.522751747765668 14.993865573065541 9.004888502630264 1.3574440248419566 -6.856881895133993 -14.407597787020677 -20.105187628241758 -22.98420659807099 -22.4620093252519 -18.447622566679797 -11.381382123894547 -2.1954001865404513 7.803522521600076 17.11492119826082 24.265375730956883 28.03712227293887 27.669724444629665 23.002119922783855 14.529721948284312 3.3629914882656493 -8.911565815330784 -20.451790206940625 -29.431873893989863 -34.32650149299721 -34.16355757599034 -28.7043354919246 -18.51925264781355 -4.9416627953747385 10.099529630132194 24.34875816142516 35.55756505986323 41.834546495205004 41.957678749678166 35.59832029117841 23.417391348201946 7.012217745514817 -11.285191087020284 -28.734365729371014 -42.59234687198952 -50.53994573135842 -51.06273858876546 -43.72512410391163 -29.289518889571173 -9.654691887030673 12.385712636616837 33.53524735679773 50.48320264848936 60.41789876618966 61.48584341265572 53.12272449722926 36.19887334086599 12.948226570422557 -13.317768981747305 -38.67624007223248
71.38528484070926 68.64468171712043 55.364198256324634 34.04138618123575 8.323538929063858 -17.608876240011487 -39.716629583836664 -54.725955357141075 -60.606928778064834 -56.83722022798503 -44.419029740436855 -25.657096249926177 -3.742817558943698 17.78201626514108 35.59269154231467 47.09007482434444 50.773213160462056 46.42382019025691 35.08226072058544 18.82823715263106 0.4093730546811793 -17.217272203137096 -31.355098317924767 -39.97534687468443 -42.00129973499353 -37.43075527983274 -27.28536443892611 -13.403014821128716 1.8868125610570152 16.14845851619168 27.223287695473257 33.55114144638486 34.383083277774645 29.857755009681814 20.936280247836155 9.21290613328209 -3.3629914882656493 -14.805976088709661 -23.40320388037314 -27.965449208867074 -27.984657798380088 -23.678499617445024 -15.920856810477227 -6.074817810664382 4.241122933231204 13.414322950010874 20.08524600318618 23.343597062967408 22.846004798248586 18.84133043638948 12.104469717288477 3.7933507594120366 -4.745326271194272 -12.189674299864313 -17.442363714081804 -19.787164932467636 -18.980904768537446 -15.270169700457707 -9.333801203008308 -2.163153242025162 5.099332842130397 11.337548816186898 15.62831285968951 17.37311077809706 16.377071691638573 12.86564242023478 7.43876865178647 0.9713457466349327 -5.523954596070874 -11.050577633816829 -14.776083185917328 -16.153109425150724 -14.99650889321267 -11.506391698028345 -6.234587660361496 0.0 6.234587660361496 11.506391698028345 14.99650889321267 16.153109425150724 14.776083185917328 11.050577633816829 5.523954596070874 -0.9713457466349327 -7.43876865178647 -12.86564242023478 -16.377071691638573 -17.37311077809706 -15.62831285968951 -11.337548816186898 -5.099332842130397 2.163153242025162 9.333801203008308 15.270169700457707 18.980904768537446 19.787164932467636 17.442363714081804 12.189674299864313 4.745326271194272 -3.7933507594120366 -12.104469717288477 -18.84133043638948 -22.846004798248586 -23.343597062967408 -20.08524600318618 -13.414322950010874 -4.241122933231204 6.074817810664382 15.920856810477227 23.678499617445024 27.984657798380088 27.965449208867074 23.40320388037314 14.805976088709661 3.3629914882656493 -9.21290613328209 -20.936280247836155 -29.857755009681814 -34.383083277774645 -33.55114144638486 -27.223287695473257 -16.14845851619168 -1.8868125610570152 13.403014821128716 27.28536443892611 37.43075527983274 42.00129973499353 39.97534687468443 31.355098317924767 17.217272203137096 -0.4093730546811793 -18.82823715263106 -35.08226072058544 -46.42382019025691 -50.773213160462056 -47.09007482434444 -35.59269154231467 -17.78201626514108 3.742817558943698 25.657096249926177 44.419029740436855 56.83722022798503 60.606928778064834 54.725955357141075 39.716629583836664 17.608876240011487 -8.323538929063858 -34.04138618123575 -55.364198256324634 -68.64468171712043
45.13558941046026 62.98378688015047 69.84769050752578 65.05336756197767 49.85999340236941 27.174762015519732 1.0091700208915426 -24.223386249809494 -44.44675430945302 -56.57497002891274 -58.97537926637145 -51.67390180126022 -36.27970440652929 -15.65367245877475 6.613845226299845 26.822018938528917 41.76944873531816 49.25534594440468 48.39460875554319 39.70344235861457 24.95181020835836 6.817459318380827 -11.592746875201904 -27.269694754871928 -37.78858924065258 -41.6774536987966 -38.612786724682934 -29.418505195662664 -15.877653353291127 -0.39655444980247473 14.416683938124898 26.18638957113615 33.1448170292351 34.390544524920394 29.993389241024914 20.936280247836155 8.911565815330784 -3.9879477889798176 -15.62783411315851 -24.18005988666559 -28.404302115478202 -27.820345034410153 -22.74911511170514 -14.222292732409018 -3.781654795332904 6.794012535151366 15.786882130802862 21.813833632479135 24.033283605352484 22.25529712194516 16.942145805134583 9.104582541649092 0.11540654247814945 -8.526087689296057 -15.439105234414374 -19.576602884506077 -20.378218095038186 -17.839647866924707 -12.49132284347386 -5.293685312704729 2.5310137827289854 9.701564391339753 15.082387967324324 17.85810187142578 17.65219674299917 14.573515348057146 9.185813286044642 2.4075043838829084 -4.641002681082397 -10.817625917029474 -15.138402008885384 -16.929380290986376 -15.928060752645687 -12.319807230898192 -6.7046088966979935 0.0 6.7046088966979935 12.319807230898192 15.928060752645687 16.929380290986376 15.138402008885384 10.817625917029474 4.641002681082397 -2.4075043838829084 -9.185813286044642 -14.573515348057146 -17.65219674299917 -17.85810187142578 -15.082387967324324 -9.701564391339753 -2.5310137827289854 5.293685312704729 12.49132284347386 17.839647866924707 20.378218095038186 19.576602884506077 15.439105234414374 8.526087689296057 -0.11540654247814945 -9.104582541649092 -16.942145805134583 -22.25529712194516 -24.033283605352484 -21.813833632479135 -15.786882130802862 -6.794012535151366 3.781654795332904 14.222292732409018 22.74911511170514 27.820345034410153 28.404302115478202 24.18005988666559 15.62783411315851 3.9879477889798176 -8.911565815330784 -20.936280247836155 -29.993389241024914 -34.390544524920394 -33.1448170292351 -26.18638957113615 -14.416683938124898 0.39655444980247473 15.877653353291127 29.418505195662664 38.612786724682934 41.6774536987966 37.78858924065258 27.269694754871928 11.592746875201904 -6.817459318380827 -24.95181020835836 -39.70344235861457 -48.39460875554319 -49.25534594440468 -41.76944873531816 -26.822018938528917 -6.613845226299845 15.65367245877475 36.27970440652929 51.67390180126022 58.97537926637145 56.57497002891274 44.44675430945302 24.223386249809494 -1.0091700208915426 -27.174762015519732 -49.85999340236941 -65.05336756197767 -69.84769050752578 -62.98378688015047
-6.204872531063173 23.86622984871678 48.655365813826954 64.13328208046026 68.02851341070618 60.14623909112686 42.31730081484357 18.001169138117532 -8.374656924780988 -32.214275436734894 -49.54866796665723 -57.689992540802486 -55.63824975056125 -44.180853518145284 -25.68106875752639 -3.6050410102666652 18.11998286906913 35.79859764047779 46.59003408939736 48.95690163686821 42.870523044884564 29.748463456520856 12.146999134355381 -6.727633430740708 -23.597132342460768 -35.67499642717743 -41.12035118181482 -39.309058045593325 -30.88416235042672 -17.587348078967363 -1.9105156410002115 13.36445068368222 25.653768317430284 33.00299849418589 34.390544524920394 29.857755009681814 20.451790206940625 8.000009659950136 -5.237581078432558 -16.972824477950873 -25.27937278286228 -28.90264732002307 -27.441138634733647 -21.37459851119639 -11.94178744548799 -0.895717977971129 9.816397190923453 18.39095322391034 23.46584912252114 24.330353188413554 21.015931705723197 14.258446395887322 5.34404094633384 -4.1302117026263465 -12.537176530880885 -18.49352037103039 -21.081491500306083 -19.984200513042314 -15.515763230411315 -8.545719022288553 -0.3344284806337335 7.6900643902324965 14.17498283524603 18.06520683830698 18.76960801222333 16.246172397789284 10.99467277925325 3.9608204694813076 -3.6301696230056995 -10.481951691433473 -15.442815569348351 -17.693968999125754 -16.880561756399846 -13.165290361084795 -7.196971996501415 0.0 7.196971996501415 13.165290361084795 16.880561756399846 17.693968999125754 15.442815569348351 10.481951691433473 3.6301696230056995 -3.9608204694813076 -10.99467277925325 -16.246172397789284 -18.76960801222333 -18.06520683830698 -14.17498283524603 -7.6900643902324965 0.3344284806337335 8.545719022288553 15.515763230411315 19.984200513042314 21.081491500306083 18.49352037103039 12.537176530880885 4.1302117026263465 -5.34404094633384 -14.258446395887322 -21.015931705723197 -24.330353188413554 -23.46584912252114 -18.39095322391034 -9.816397190923453 0.895717977971129 11.94178744548799 21.37459851119639 27.441138634733647 28.90264732002307 25.27937278286228 16.972824477950873 5.237581078432558 -8.000009659950136 -20.451790206940625 -29.857755009681814 -34.390544524920394 -33.00299849418589 -25.653768317430284 -13.36445068368222 1.9105156410002115 17.587348078967363 30.88416235042672 39.309058045593325 41.12035118181482 35.67499642717743 23.597132342460768 6.727633430740708 -12.146999134355381 -29.748463456520856 -42.870523044884564 -48.95690163686821 -46.59003408939736 -35.79859764047779 -18.11998286906913 3.6050410102666652 25.68106875752639 44.180853518145284 55.63824975056125 57.689992540802486 49.54866796665723 32.214275436734894 8.374656924780988 -18.001169138117532 -42.31730081484357 -60.14623909112686 -68.02851341070618 -64.13328208046026 -48.655365813826954 -23.86622984871678
-55.35799893163903 -28.799483482601474 1.8607982635424325 30.965904880721098 53.363147859506626 65.30981195771056 65.08892515213684 53.23576655409984 32.350037192240976 6.544388346060773 -19.356469415335162 -40.711562254742354 -53.88912070582893 -56.87605258140023 -49.570805558743324 -33.72032035532079 -12.527582810598654 9.985505683015122 29.734798806503818 43.308878455840635 48.551164385636554 44.89126909440668 33.377150434195286 16.415584058517897 -2.719416136959036 -20.511580244566588 -33.84261931500848 -40.53221100974178 -39.685512282022884 -31.7947540096594 -18.58804111268598 -2.6641037162043375 13.011730544751776 25.653768317430284 33.1448170292351 34.383083277774645 29.431873893989863 19.454690672994452 6.457401320539829 -7.107509868889531 -18.79771223535348 -26.61477767619646 -29.339004868597826 -26.7106184871682 -19.432487879248352 -9.002272331895135 2.588358705640639 13.22815405681015 21.064957936257642 24.821803600232677 23.997747252357584 18.92343782759084 10.668213416381816 0.8215602804691295 -8.807414147386007 -16.516590731188806 -21.00561638428228 -21.588996709600522 -18.2938993385031 -11.830324517210638 -3.4437132756391944 5.320220699753089 12.894830395343554 17.96656926340946 19.696945121039484 17.856074107246876 12.8476623113901 5.624187716509808 -2.4904263870104963 -10.038283007423464 -15.683483339563846 -18.442794135987683 -17.852315492948826 -14.04282269044948 -7.712109844940399 0.0 7.712109844940399 14.04282269044948 17.852315492948826 18.442794135987683 15.683483339563846 10.038283007423464 2.4904263870104963 -5.624187716509808 -12.8476623113901 -17.856074107246876 -19.696945121039484 -17.96656926340946 -12.894830395343554 -5.320220699753089 3.4437132756391944 11.830324517210638 18.2938993385031 21.588996709600522 21.00561638428228 16.516590731188806 8.807414147386007 -0.8215602804691295 -10.668213416381816 -18.92343782759084 -23.997747252357584 -24.821803600232677 -21.064957936257642 -13.22815405681015 -2.588358705640639 9.002272331895135 19.432487879248352 26.7106184871682 29.339004868597826 26.61477767619646 18.79771223535348 7.107509868889531 -6.457401320539829 -19.454690672994452 -29.431873893989863 -34.383083277774645 -33.1448170292351 -25.653768317430284 -13.011730544751776 2.6641037162043375 18.58804111268598 31.7947540096594 39.685512282022884 40.53221100974178 33.84261931500848 20.511580244566588 2.719416136959036 -16.415584058517897 -33.377150434195286 -44.89126909440668 -48.551164385636554 -43.308878455840635 -29.734798806503818 -9.985505683015122 12.527582810598654 33.72032035532079 49.570805558743324 56.87605258140023 53.88912070582893 40.711562254742354 19.356469415335162 -6.544388346060773 -32.350037192240976 -53.23576655409984 -65.08892515213684 -65.30981195771056 -53.363147859506626 -30.965904880721098 -1.8607982635424325 28.799483482601474
-75.60333574271047 -67.47343791563529 -47.02837128370766 -18.58426536632051 12.211176602385894 39.49260043831002 58.28779807313313 65.41622594198398 60.01446493150901 43.60465294777001 19.711501051685445 -6.881603891114824 -31.082564780052035 -48.45929325662686 -56.044093644614456 -52.829222831115764 -39.87337841648525 -20.01553493732677 2.733365092679727 23.992730465729682 39.849516601286986 47.57148816484544 46.06796322097724 36.0225614967832 19.68745020878943 0.39264408012231594 -18.124953716001993 -32.438928332097106 -40.06061566281733 -39.86278865115518 -32.22961674265645 -18.917227730712018 -2.6641037162043375 13.36445068368222 26.18638957113615 33.55114144638486 34.32650149299721 28.659471067789315 17.891473896990217 4.255038477317531 -9.581571256731596 -21.030148117730135 -28.06020463665569 -29.551645895243492 -25.46281297270229 -16.791204877096888 -5.343551035469603 6.633693234743044 16.889007016833514 23.582643728595702 25.60974918976352 22.774492396191633 15.789704458291379 6.109538331403888 -4.367221182003037 -13.663665625951555 -20.091430095958913 -22.550767686599478 -20.712083089348283 -15.05047210127145 -6.732408865524114 2.6196735756716474 11.238221707544097 17.538305030613472 20.402740337885476 19.37461822439055 14.72527713812868 7.388819170889551 -1.2218412909837761 -9.481821967576145 -15.854614478902164 -19.171652270526316 -18.841508697300263 -14.952334250640009 -8.250447438328415 0.0 8.250447438328415 14.952334250640009 18.841508697300263 19.171652270526316 15.854614478902164 9.481821967576145 1.2218412909837761 -7.388819170889551 -14.72527713812868 -19.37461822439055 -20.402740337885476 -17.538305030613472 -11.238221707544097 -2.6196735756716474 6.732408865524114 15.05047210127145 20.712083089348283 22.550767686599478 20.091430095958913 13.663665625951555 4.367221182003037 -6.109538331403888 -15.789704458291379 -22.774492396191633 -25.60974918976352 -23.582643728595702 -16.889007016833514 -6.633693234743044 5.343551035469603 16.791204877096888 25.46281297270229 29.551645895243492 28.06020463665569 21.030148117730135 9.581571256731596 -4.255038477317531 -17.891473896990217 -28.659471067789315 -34.32650149299721 -33.55114144638486 -26.18638957113615 -13.36445068368222 2.6641037162043375 18.917227730712018 32.22961674265645 39.86278865115518 40.06061566281733 32.438928332097106 18.124953716001993 -0.39264408012231594 -19.68745020878943 -36.0225614967832 -46.06796322097724 -47.57148816484544 -39.849516601286986 -23.992730465729682 -2.733365092679727 20.01553493732677 39.87337841648525 52.829222831115764 56.044093644614456 48.45929325662686 31.082564780052035 6.881603891114824 -19.711501051685445 -43.60465294777001 -60.01446493150901 -65.41622594198398 -58.28779807313313 -39.49260043831002 -12.211176602385894 18.58426536632051 47.02837128370766 67.47343791563529
-55.276944077156834 -71.35916869639641 -72.85372325432087 -60.03363129583784 -35.96903144103607 -5.815231056653468 24.28130149320147 48.428707453122804 62.13613699648647 63.139170782471886 51.75471927982778 30.714523115469348 4.531100506688439 -21.460152284386854 -42.18113435485825 -53.796145972753294 -54.412287730485005 -44.36941540977511 -26.079897464939915 -3.468608623039761 18.859970116597793 36.55245988869871 46.348305560722245 46.67123674352551 37.86530407334018 22.044646688838057 2.6032607293672427 -16.504333783742503 -31.560628061096427 -39.801334321632645 -39.91376701838735 -32.22961674265645 -18.58804111268598 -1.9105156410002115 14.416683938124898 27.223287695473257 34.16355757599034 34.137215026282185 27.44923514200703 15.689134168293062 1.3657914633623258 -12.62031763128482 -23.55778840210828 -29.44290560698747 -29.338505308387795 -23.510694476634914 -13.326767411222736 -0.9444713964417297 11.138382881265319 20.58117660165306 25.64691193404843 25.514151344029436 20.40018672220155 11.479575574822812 0.6219095444426679 -9.993873267112598 -18.310191602858275 -22.78271165675108 -22.660256491358666 -18.103563974399183 -10.125991660063896 -0.37343672975740716 9.209622551406504 16.761261735089374 20.857039869363074 20.77251500038331 16.606341858215668 9.244252060429469 0.17436631039466233 -8.80829933161924 -15.950500536202386 -19.876230146223964 -19.846213098194244 -15.893702996341638 -8.812401721093526 0.0 8.812401721093526 15.893702996341638 19.846213098194244 19.876230146223964 15.950500536202386 8.80829933161924 -0.17436631039466233 -9.244252060429469 -16.606341858215668 -20.77251500038331 -20.857039869363074 -16.761261735089374 -9.209622551406504 0.37343672975740716 10.125991660063896 18.103563974399183 22.660256491358666 22.78271165675108 18.310191602858275 9.993873267112598 -0.6219095444426679 -11.479575574822812 -20.40018672220155 -25.514151344029436 -25.64691193404843 -20.58117660165306 -11.138382881265319 0.9444713964417297 13.326767411222736 23.510694476634914 29.338505308387795 29.44290560698747 23.55778840210828 12.62031763128482 -1.3657914633623258 -15.689134168293062 -27.44923514200703 -34.137215026282185 -34.16355757599034 -27.223287695473257 -14.416683938124898 1.9105156410002115 18.58804111268598 32.22961674265645 39.91376701838735 39.801334321632645 31.560628061096427 16.504333783742503 -2.6032607293672427 -22.044646688838057 -37.86530407334018 -46.67123674352551 -46.348305560722245 -36.55245988869871 -18.859970116597793 3.468608623039761 26.079897464939915 44.36941540977511 54.412287730485005 53.796145972753294 42.18113435485825 21.460152284386854 -4.531100506688439 -30.714523115469348 -51.75471927982778 -63.139170782471886 -62.13613699648647 -48.428707453122804 -24.28130149320147 5.815231056653468 35.96903144103607 60.03363129583784 72.85372325432087 71.35916869639641
-4.45010568010221 -37.55957636664603 -61.72745904605003 -72.35261709968013 -67.78388939028379 -49.5448491157719 -21.898473497227734 9.13326338041555 37.0722681165702 56.32949516639078 63.314569894392484 57.0914533719436 39.46372037675417 14.494868795203207 -12.415100527741002 -35.68939706040109 -50.72296828799916 -54.78482064818501 -47.49933902752645 -30.82543539821664 -8.558736981845176 14.521240585990403 33.669364708847446 45.143165254323755 46.92509889417085 39.06153385672587 23.565536624367095 3.922067712276871 -15.686171282088024 -31.262039177063766 -39.801334321632645 -39.86278865115518 -31.7947540096594 -17.587348078967363 -0.39655444980247473 16.14845851619168 28.7043354919246 34.88157040698427 33.68977793580042 25.679498629027318 12.765006048117634 -2.2220465973386756 -16.145988335257673 -26.216070729004112 -30.538163445182455 -28.46186139043418 -20.661630104881258 -8.946877158281682 4.149390523971762 15.91129738603244 23.996144108209823 26.893439121671292 24.19869826879572 16.65445500671707 5.959316484856357 -5.60791023876223 -15.667050872576297 -22.21908815835582 -24.036115450020393 -20.884321666597963 -13.541274884327747 -3.610714709279039 6.822135815978632 15.62172503809507 21.032032573981322 22.020192640517568 18.46818859599777 11.17837090035477 1.6957802746442237 -8.014027328427197 -15.965548592703579 -20.552117477970192 -20.864387520412638 -16.866754344770957 -9.398381424460052 0.0 9.398381424460052 16.866754344770957 20.864387520412638 20.552117477970192 15.965548592703579 8.014027328427197 -1.6957802746442237 -11.17837090035477 -18.46818859599777 -22.020192640517568 -21.032032573981322 -15.62172503809507 -6.822135815978632 3.610714709279039 13.541274884327747 20.884321666597963 24.036115450020393 22.21908815835582 15.667050872576297 5.60791023876223 -5.959316484856357 -16.65445500671707 -24.19869826879572 -26.893439121671292 -23.996144108209823 -15.91129738603244 -4.149390523971762 8.946877158281682 20.661630104881258 28.46186139043418 30.538163445182455 26.216070729004112 16.145988335257673 2.2220465973386756 -12.765006048117634 -25.679498629027318 -33.68977793580042 -34.88157040698427 -28.7043354919246 -16.14845851619168 0.39655444980247473 17.587348078967363 31.7947540096594 39.86278865115518 39.801334321632645 31.262039177063766 15.686171282088024 -3.922067712276871 -23.565536624367095 -39.06153385672587 -46.92509889417085 -45.143165254323755 -33.669364708847446 -14.521240585990403 8.558736981845176 30.82543539821664 47.49933902752645 54.78482064818501 50.72296828799916 35.68939706040109 12.415100527741002 -14.494868795203207 -39.46372037675417 -57.0914533719436 -63.314569894392484 -56.32949516639078 -37.0722681165702 -9.13326338041555 21.898473497227734 49.5448491157719 67.78388939028379 72.35261709968013 61.72745904605003 37.55957636664603
50.01605836689027 16.95694986486156 -18.468063236056313 -48.61027300854152 -67.2396967926443 -70.82283871518325 -59.174695589837484 -35.36935464891916 -4.95690473349083 25.318789931056582 49.00751582795775 61.31894026854088 60.08006243509976 46.09523932180016 22.855579614488178 -4.314079733995343 -29.465571690548867 -47.32195395148685 -54.37611372943575 -49.56667982013816 -34.404198186095265 -12.543284902479698 11.08496060842939 31.376822899947737 44.15071793709484 46.99968269754977 39.730004642649504 24.309938203345194 4.360146908948979 -15.686171282088024 -31.560628061096427 -40.06061566281733 -39.685512282022884 -30.88416235042672 -15.877653353291127 1.8868125610570152 18.51925264781355 30.531125038157604 35.55884967923745 32.81847397692297 23.206648331912586 9.04154721691547 -6.486268518435996 -20.02482262104378 -28.77666036159872 -31.068528896172765 -26.66078316646941 -16.742038563535584 -3.6229857783290544 9.794177178897321 20.650365414942 26.73106942556261 26.909897730312146 21.347356191167805 11.412444543645421 -0.6463908500781042 -12.203291676075851 -20.81929599441639 -24.749278605182862 -23.287955060927505 -16.888185959590466 -7.034039921938368 4.097790424517212 14.112054646523854 20.902675182396663 23.088228017155092 20.286862938692202 13.177449234374334 3.3387504645015125 -7.095950296672859 -15.894314701347465 -21.194820322543 -21.893880240487203 -17.871260761965182 -10.008786906877413 0.0 10.008786906877413 17.871260761965182 21.893880240487203 21.194820322543 15.894314701347465 7.095950296672859 -3.3387504645015125 -13.177449234374334 -20.286862938692202 -23.088228017155092 -20.902675182396663 -14.112054646523854 -4.097790424517212 7.034039921938368 16.888185959590466 23.287955060927505 24.749278605182862 20.81929599441639 12.203291676075851 0.6463908500781042 -11.412444543645421 -21.347356191167805 -26.909897730312146 -26.73106942556261 -20.650365414942 -9.794177178897321 3.6229857783290544 16.742038563535584 26.66078316646941 31.068528896172765 28.77666036159872 20.02482262104378 6.486268518435996 -9.04154721691547 -23.206648331912586 -32.81847397692297 -35.55884967923745 -30.531125038157604 -18.51925264781355 -1.8868125610570152 15.877653353291127 30.88416235042672 39.685512282022884 40.06061566281733 31.560628061096427 15.686171282088024 -4.360146908948979 -24.309938203345194 -39.730004642649504 -46.99968269754977 -44.15071793709484 -31.376822899947737 -11.08496060842939 12.543284902479698 34.404198186095265 49.56667982013816 54.37611372943575 47.32195395148685 29.465571690548867 4.314079733995343 -22.855579614488178 -46.09523932180016 -60.08006243509976 -61.31894026854088 -49.00751582795775 -25.318789931056582 4.95690473349083 35.36935464891916 59.174695589837484 70.82283871518325 67.2396967926443 48.61027300854152 18.468063236056313 -16.95694986486156
78.63814528950465 63.843601185338564 35.41545742743224 0.1857629006152956 -33.7559519856727 -58.91188097608486 -70.0234575081151 -65.15724348400533 -46.00833919620296 -17.383596536473505 13.988548355918505 41.03019480832952 57.90271711150371 61.25735704145046 50.8822623543513 29.625640332254516 2.640866810342011 -23.851296874905813 -43.988434828809005 -53.55521491842417 -50.85385268551582 -36.97958689718485 -15.464111501551752 8.607921839104431 29.791320791289625 43.50398451079821 47.00861677580917 39.94450126047644 24.309938203345194 3.922067712276871 -16.504333783742503 -32.438928332097106 -40.53221100974178 -39.309058045593325 -29.418505195662664 -13.403014821128716 4.9416627953747385 21.457428016521764 32.558259757207416 35.999972305109964 31.322240615091296 19.87893432485062 4.467000480673885 -11.347942429781941 -24.048530557987732 -30.939675160638867 -30.711295779312604 -23.67459117739395 -11.632851771664459 2.570645405065047 15.71622076823274 24.929615212074946 28.302047931535952 25.27678535055026 16.726254425944745 4.71379616426937 -7.997168680129514 -18.571237555938875 -24.725309045439392 -25.213525352231958 -20.07186027674507 -10.576384928574921 1.0676407212118604 12.231233298701772 20.447302740018106 23.94779719641361 22.03735608554803 15.22621021183656 5.098364641515042 -6.051692782069993 -15.731537475036305 -21.799774989499536 -22.932431593673705 -18.906941396387037 -10.644009996231182 0.0 10.644009996231182 18.906941396387037 22.932431593673705 21.799774989499536 15.731537475036305 6.051692782069993 -5.098364641515042 -15.22621021183656 -22.03735608554803 -23.94779719641361 -20.447302740018106 -12.231233298701772 -1.0676407212118604 10.576384928574921 20.07186027674507 25.213525352231958 24.725309045439392 18.571237555938875 7.997168680129514 -4.71379616426937 -16.726254425944745 -25.27678535055026 -28.302047931535952 -24.929615212074946 -15.71622076823274 -2.570645405065047 11.632851771664459 23.67459117739395 30.711295779312604 30.939675160638867 24.048530557987732 11.347942429781941 -4.467000480673885 -19.87893432485062 -31.322240615091296 -35.999972305109964 -32.558259757207416 -21.457428016521764 -4.9416627953747385 13.403014821128716 29.418505195662664 39.309058045593325 40.53221100974178 32.438928332097106 16.504333783742503 -3.922067712276871 -24.309938203345194 -39.94450126047644 -47.00861677580917 -43.50398451079821 -29.791320791289625 -8.607921839104431 15.464111501551752 36.97958689718485 50.85385268551582 53.55521491842417 43.988434828809005 23.851296874905813 -2.640866810342011 -29.625640332254516 -50.8822623543513 -61.25735704145046 -57.90271711150371 -41.03019480832952 -13.988548355918505 17.383596536473505 46.00833919620296 65.15724348400533 70.0234575081151 58.91188097608486 33.7559519856727 -0.1857629006152956 -35.41545742743224 -63.843601185338564
65.24323827907762 78.08801882743171 72.39059164617812 50.15564021052491 17.14579506656159 -18.5943571209425 -48.68881460549919 -66.38451706347307 -68.05556772225371 -53.92510333712439 -27.866966407938605 3.63165317909628 33.07368808383249 53.72792124499919 61.15838328285932 54.162302038693326 34.92223719981559 8.367985415980142 -19.072690041890446 -41.020823746041124 -52.62034758134317 -51.60100713827568 -38.700435190549825 -17.37341190619604 7.1156949141300965 28.982432538689746 43.280011303535645 47.00861677580917 39.730004642649504 23.565536624367095 2.6032607293672427 -18.124953716001993 -33.84261931500848 -41.12035118181482 -38.612786724682934 -27.28536443892611 -10.099529630132194 8.74910974079514 24.846213133017866 34.58392444246181 35.95983717216897 28.975270403086945 15.557449910359118 -0.957617115316445 -16.64565176775558 -27.918102896028234 -32.33404955605295 -29.118559409046853 -19.28017381289113 -5.315772710803693 9.414471681728914 21.487389225895246 28.203622858794155 28.182229543084528 21.634420008521452 10.265080410346515 -3.1632112397695136 -15.49378959031765 -23.90943345895739 -26.56740300961971 -22.9950078989491 -14.162915333528645 -2.2283360584970575 9.985313200582503 19.64821280376398 24.57113984173456 23.693861292606574 17.307906017214364 6.968429957143333 -4.879604727669549 -15.472171673783063 -22.36236245745003 -23.977676829639705 -19.973461760331894 -11.30443383387122 0.0 11.30443383387122 19.973461760331894 23.977676829639705 22.36236245745003 15.472171673783063 4.879604727669549 -6.968429957143333 -17.307906017214364 -23.693861292606574 -24.57113984173456 -19.64821280376398 -9.985313200582503 2.2283360584970575 14.162915333528645 22.9950078989491 26.56740300961971 23.90943345895739 15.49378959031765 3.1632112397695136 -10.265080410346515 -21.634420008521452 -28.182229543084528 -28.203622858794155 -21.487389225895246 -9.414471681728914 5.315772710803693 19.28017381289113 29.118559409046853 32.33404955605295 27.918102896028234 16.64565176775558 0.957617115316445 -15.557449910359118 -28.975270403086945 -35.95983717216897 -34.58392444246181 -24.846213133017866 -8.74910974079514 10.099529630132194 27.28536443892611 38.612786724682934 41.12035118181482 33.84261931500848 18.124953716001993 -2.6032607293672427 -23.565536624367095 -39.730004642649504 -47.00861677580917 -43.280011303535645 -28.982432538689746 -7.1156949141300965 17.37341190619604 38.700435190549825 51.60100713827568 52.62034758134317 41.020823746041124 19.072690041890446 -8.367985415980142 -34.92223719981559 -54.162302038693326 -61.15838328285932 -53.72792124499919 -33.07368808383249 -3.63165317909628 27.866966407938605 53.92510333712439 68.05556772225371 66.38451706347307 48.68881460549919 18.5943571209425 -17.14579506656159 -50.15564021052491 -72.39059164617812 -78.08801882743171
16.07115247046256 51.328601516554286 72.94411515014488 76.20828709856902 61.00810516003987 31.685517542715175 -4.174165785198573 -37.6918505591905 -60.88397461182374 -68.55395712895424 -59.440285983457116 -36.372103894701915 -5.432307538699102 25.632148219295246 49.340445566637705 60.26992906966457 56.28308853299205 38.91549097024842 12.863711754338926 -15.2682502290315 -38.63301174894415 -51.797320282387886 -51.99409727238696 -39.68354176295853 -18.315566638670806 6.617587504888651 28.982432538689746 43.50398451079821 46.99968269754977 39.06153385672587 22.044646688838057 0.39264408012231594 -20.511580244566588 -35.67499642717743 -41.6774536987966 -37.43075527983274 -24.34875816142516 -5.91115714910684 13.250575128589308 28.507475887452824 36.34206870368887 35.1486923031166 25.545975937627826 10.145712879276902 -7.14583954986714 -22.10978656534197 -31.234843805079656 -32.53154556101954 -25.95419913335184 -13.344505089614117 2.0725592922250216 16.50498295769338 26.5174463713125 29.83970776347299 25.871852300766815 15.776612215791724 2.150073556412364 -11.638226023227206 -22.269805571069142 -27.266713276940404 -25.560499367111635 -17.712358701458555 -5.741552482063796 7.3877457723796 18.49221193319997 24.9320311412416 25.230052336936154 19.40441597969528 8.94146447380841 -3.5788034043982324 -15.111421638624902 -22.877923258934153 -25.027149213895726 -21.07043345958973 -11.990432720491118 0.0 11.990432720491118 21.07043345958973 25.027149213895726 22.877923258934153 15.111421638624902 3.5788034043982324 -8.94146447380841 -19.40441597969528 -25.230052336936154 -24.9320311412416 -18.49221193319997 -7.3877457723796 5.741552482063796 17.712358701458555 25.560499367111635 27.266713276940404 22.269805571069142 11.638226023227206 -2.150073556412364 -15.776612215791724 -25.871852300766815 -29.83970776347299 -26.5174463713125 -16.50498295769338 -2.0725592922250216 13.344505089614117 25.95419913335184 32.53154556101954 31.234843805079656 22.10978656534197 7.14583954986714 -10.145712879276902 -25.545975937627826 -35.1486923031166 -36.34206870368887 -28.507475887452824 -13.250575128589308 5.91115714910684 24.34875816142516 37.43075527983274 41.6774536987966 35.67499642717743 20.511580244566588 -0.39264408012231594 -22.044646688838057 -39.06153385672587 -46.99968269754977 -43.50398451079821 -28.982432538689746 -6.617587504888651 18.315566638670806 39.68354176295853 51.99409727238696 51.797320282387886 38.63301174894415 15.2682502290315 -12.863711754338926 -38.91549097024842 -56.28308853299205 -60.26992906966457 -49.340445566637705 -25.632148219295246 5.432307538699102 36.372103894701915 59.440285983457116 68.55395712895424 60.88397461182374 37.6918505591905 4.174165785198573 -31.685517542715175 -61.00810516003987 -76.20828709856902 -72.94411515014488 -51.328601516554286
-43.05851974666286 -3.301616292039142 35.85107436699451 64.61568057841151 76.165191048621 68.23409705423272 43.52027939919214 8.827129768440361 -26.792594091825144 -54.388601860540035 -67.35213349814586 -62.98470837361197 -43.02808069538686 -13.061432972398713 19.04039853696795 45.16565121323726 59.00567248522654 57.56573294735015 41.78830023794467 16.16667303465545 -12.515429980688388 -36.969023103368905 -51.24258633229474 -52.1589833937569 -40.00282901866044 -18.315566638670806 7.1156949141300965 29.791320791289625 44.15071793709484 46.92509889417085 37.86530407334018 19.68745020878943 -2.719416136959036 -23.597132342460768 -37.78858924065258 -42.00129973499353 -35.55756505986323 -20.464320215679738 -0.8115733779063907 18.325019633169738 32.185496729614165 37.49957099123906 33.24638129791266 20.826918187162864 3.6282448311435918 -13.889887465302785 -27.342080383133865 -33.50529492406785 -31.08049108075385 -20.95091399577912 -5.890648083200382 10.185695484698428 23.231352690646283 30.076345968234357 29.18799088787503 21.003239374682202 7.764099553603209 -7.08847162527827 -19.800168765779937 -27.242656360516907 -27.674107538712004 -21.138621410355775 -9.415337540222803 4.459582317656006 16.971113222485815 25.006254569672052 26.61938138251341 21.496362999743358 11.008699079438005 -2.1492117419183083 -14.644774418698608 -23.34177279544994 -26.07828337158552 -22.197413971780904 -12.702371963893253 0.0 12.702371963893253 22.197413971780904 26.07828337158552 23.34177279544994 14.644774418698608 2.1492117419183083 -11.008699079438005 -21.496362999743358 -26.61938138251341 -25.006254569672052 -16.971113222485815 -4.459582317656006 9.415337540222803 21.138621410355775 27.674107538712004 27.242656360516907 19.800168765779937 7.08847162527827 -7.764099553603209 -21.003239374682202 -29.18799088787503 -30.076345968234357 -23.231352690646283 -10.185695484698428 5.890648083200382 20.95091399577912 31.08049108075385 33.50529492406785 27.342080383133865 13.889887465302785 -3.6282448311435918 -20.826918187162864 -33.24638129791266 -37.49957099123906 -32.185496729614165 -18.325019633169738 0.8115733779063907 20.464320215679738 35.55756505986323 42.00129973499353 37.78858924065258 23.597132342460768 2.719416136959036 -19.68745020878943 -37.86530407334018 -46.92509889417085 -44.15071793709484 -29.791320791289625 -7.1156949141300965 18.315566638670806 40.00282901866044 52.1589833937569 51.24258633229474 36.969023103368905 12.515429980688388 -16.16667303465545 -41.78830023794467 -57.56573294735015 -59.00567248522654 -45.16565121323726 -19.04039853696795 13.061432972398713 43.02808069538686 62.98470837361197 67.35213349814586 54.388601860540035 26.792594091825144 -8.827129768440361 -43.52027939919214 -68.23409705423272 -76.165191048621 -64.61568057841151 -35.85107436699451 3.301616292039142
