2064 2047 2038 2028 2024 2034 2047 2057 2060 2060 2057 2047 2038 2031 2031 2034 2041 2060 2077 2087 2106 2120 2136 2149 2156 2165 2182 2195 2205 2215 2225 2231 2244 2257 2300 2320 2339 2362 2379 2398 2418 2441 2464 2487 2513 2556 2576 2595 2612 2625 2641  
2070 2060 2051 2041 2038 2051 2064 2074 2077 2077 2070 2057 2047 2038 2031 2034 2044 2057 2070 2080 2093 2110 2123 2139 2156 2162 2175 2195 2205 2215 2228 2238 2251 2270 2310 2330 2352 2372 2389 2408 2428 2448 2464 2487 2510 2556 2576 2599 2615 2628 2641  
2083 2074 2064 2054 2054 2067 2080 2087 2090 2090 2087 2070 2057 2044 2034 2038 2051 2067 2083 2093 2106 2116 2136 2152 2169 2179 2192 2202 2211 2218 2228 2241 2257 2277 2316 2336 2359 2379 2398 2418 2438 2457 2474 2490 2513 2553 2576 2599 2615 2631 2644  
2097 2087 2077 2067 2070 2083 2097 2100 2103 2100 2097 2080 2067 2051 2038 2041 2057 2077 2093 2106 2120 2129 2156 2169 2179 2192 2202 2211 2218 2225 2231 2241 2257 2280 2320 2339 2359 2379 2402 2425 2444 2464 2484 2500 2520 2559 2576 2595 2615 2628 2644  
2106 2097 2087 2077 2083 2097 2110 2113 2116 2113 2106 2090 2077 2057 2041 2041 2064 2087 2100 2113 2129 2142 2165 2179 2188 2202 2211 2221 2228 2234 2241 2247 2261 2277 2316 2336 2356 2379 2402 2425 2448 2467 2490 2510 2526 2562 2582 2599 2615 2631 2644  
2116 2106 2097 2093 2103 2116 2123 2126 2126 2123 2116 2097 2083 2067 2047 2051 2070 2090 2106 2120 2136 2152 2175 2188 2198 2208 2218 2228 2238 2247 2254 2264 2270 2280 2313 2333 2352 2375 2398 2425 2448 2467 2490 2510 2530 2569 2589 2605 2622 2635 2651  
2126 2113 2106 2113 2123 2133 2136 2136 2136 2133 2126 2106 2090 2077 2057 2057 2077 2093 2110 2126 2142 2159 2185 2195 2205 2215 2225 2234 2244 2257 2270 2280 2287 2297 2320 2336 2352 2372 2392 2415 2438 2461 2487 2507 2530 2569 2589 2608 2622 2638 2654  
2133 2120 2116 2120 2133 2142 2146 2146 2146 2142 2136 2113 2097 2080 2067 2067 2080 2093 2113 2133 2149 2165 2192 2202 2211 2221 2231 2241 2257 2270 2284 2297 2307 2316 2336 2349 2362 2375 2392 2412 2431 2454 2477 2500 2520 2566 2585 2605 2622 2638 2654  
2152 2136 2129 2139 2156 2169 2175 2175 2169 2159 2149 2120 2100 2080 2070 2070 2077 2093 2113 2133 2149 2169 2198 2208 2218 2231 2244 2261 2277 2290 2307 2320 2336 2349 2375 2389 2398 2415 2428 2444 2457 2471 2484 2503 2517 2549 2569 2589 2605 2625 2648  
2159 2146 2146 2156 2172 2185 2195 2195 2185 2172 2159 2123 2100 2083 2070 2070 2077 2090 2110 2129 2149 2162 2195 2208 2218 2231 2247 2264 2284 2300 2313 2330 2343 2362 2392 2405 2421 2435 2451 2467 2477 2490 2503 2517 2530 2559 2576 2592 2612 2631 2651  
2165 2156 2159 2172 2188 2202 2208 2205 2198 2185 2169 2126 2103 2080 2074 2074 2077 2087 2106 2123 2139 2156 2192 2208 2218 2231 2247 2267 2287 2303 2320 2333 2349 2366 2405 2421 2438 2454 2467 2484 2494 2507 2520 2533 2546 2576 2592 2608 2622 2638 2654  
2172 2165 2172 2185 2202 2211 2211 2211 2205 2192 2172 2129 2100 2080 2077 2083 2083 2087 2100 2116 2129 2146 2182 2202 2215 2228 2241 2264 2284 2303 2320 2336 2352 2372 2412 2431 2448 2467 2480 2497 2507 2520 2533 2546 2559 2592 2608 2622 2635 2651 2667  
2188 2182 2188 2202 2211 2218 2218 2215 2208 2195 2179 2133 2106 2090 2093 2100 2103 2103 2103 2113 2123 2136 2172 2195 2208 2221 2234 2254 2277 2300 2320 2336 2352 2372 2415 2435 2454 2474 2490 2503 2517 2530 2543 2556 2572 2602 2615 2631 2644 2661 2674  
2202 2198 2202 2211 2221 2228 2231 2225 2211 2198 2182 2133 2113 2103 2113 2123 2126 2120 2113 2113 2116 2133 2162 2185 2205 2215 2228 2244 2270 2293 2313 2330 2346 2369 2412 2431 2454 2474 2490 2507 2523 2536 2549 2566 2582 2608 2622 2638 2651 2667 2684  
2211 2211 2211 2221 2231 2238 2238 2228 2215 2202 2182 2133 2116 2113 2126 2139 2146 2139 2129 2120 2120 2126 2152 2175 2198 2211 2221 2238 2261 2287 2307 2323 2343 2362 2405 2425 2448 2467 2487 2503 2520 2539 2556 2569 2585 2612 2625 2641 2654 2671 2690  
2225 2225 2225 2231 2241 2247 2241 2231 2218 2205 2185 2139 2120 2120 2136 2156 2165 2165 2159 2146 2139 2139 2149 2162 2185 2202 2215 2228 2247 2277 2300 2316 2336 2356 2398 2418 2438 2457 2477 2500 2517 2536 2553 2569 2589 2612 2625 2641 2654 2671 2690  
2238 2234 2234 2241 2251 2254 2244 2234 2221 2208 2195 2156 2129 2126 2149 2172 2185 2188 2185 2175 2165 2156 2156 2162 2179 2195 2211 2221 2234 2264 2290 2310 2330 2346 2392 2408 2428 2448 2471 2490 2510 2530 2546 2562 2582 2608 2622 2638 2651 2671 2690  
2247 2244 2241 2254 2267 2261 2244 2234 2225 2211 2202 2165 2142 2139 2159 2182 2202 2205 2202 2198 2192 2182 2175 2175 2182 2195 2205 2215 2228 2251 2277 2300 2320 2336 2382 2402 2421 2438 2457 2480 2503 2520 2539 2553 2569 2602 2615 2631 2648 2667 2687  
2264 2257 2257 2267 2280 2274 2251 2238 2228 2218 2208 2172 2156 2149 2165 2192 2208 2211 2211 2211 2208 2205 2198 2198 2198 2195 2202 2211 2221 2238 2261 2287 2310 2326 2369 2389 2408 2428 2448 2467 2487 2510 2526 2543 2556 2589 2602 2625 2638 2661 2677  
2287 2274 2270 2277 2287 2280 2261 2241 2231 2225 2215 2179 2159 2152 2172 2195 2211 2215 2218 2221 2218 2218 2215 2215 2211 2205 2208 2215 2221 2234 2251 2274 2297 2313 2356 2375 2395 2415 2435 2454 2474 2494 2517 2530 2546 2579 2599 2622 2641 2654 2674  
2313 2297 2284 2287 2293 2287 2270 2251 2238 2231 2218 2188 2165 2156 2175 2202 2211 2221 2228 2231 2231 2231 2228 2228 2225 2221 2218 2221 2228 2231 2241 2264 2284 2303 2343 2362 2385 2405 2421 2441 2457 2477 2500 2517 2533 2572 2599 2615 2638 2654 2671  
2330 2320 2303 2303 2310 2297 2280 2264 2244 2234 2225 2198 2179 2165 2182 2205 2215 2225 2234 2241 2244 2244 2241 2241 2238 2234 2234 2231 2231 2228 2234 2247 2270 2290 2330 2352 2372 2392 2408 2425 2441 2461 2484 2503 2520 2562 2585 2605 2628 2648 2661  
2346 2339 2333 2330 2333 2323 2310 2290 2270 2251 2238 2215 2202 2195 2195 2205 2218 2228 2238 2251 2261 2264 2267 2267 2264 2261 2261 2257 2251 2247 2241 2241 2257 2277 2313 2333 2346 2362 2379 2395 2412 2431 2451 2474 2503 2549 2569 2589 2608 2631 2648  
2356 2352 2346 2343 2343 2336 2323 2303 2280 2261 2244 2218 2208 2202 2202 2211 2221 2231 2241 2257 2274 2277 2280 2280 2277 2277 2277 2274 2267 2264 2257 2257 2261 2274 2307 2323 2333 2346 2366 2379 2395 2415 2438 2467 2497 2546 2562 2582 2602 2618 2635  
2369 2362 2352 2349 2352 2349 2336 2316 2290 2270 2251 2225 2215 2208 2208 2218 2225 2234 2247 2274 2287 2290 2297 2293 2293 2293 2293 2290 2287 2280 2277 2274 2274 2274 2300 2313 2323 2336 2352 2366 2382 2402 2435 2467 2497 2539 2556 2576 2589 2605 2625  
2389 2375 2362 2356 2359 2362 2352 2326 2303 2280 2257 2228 2221 2218 2221 2225 2231 2241 2257 2284 2293 2303 2313 2310 2310 2310 2310 2310 2307 2300 2297 2293 2290 2287 2297 2307 2316 2330 2343 2356 2372 2402 2431 2464 2490 2533 2549 2566 2579 2599 2622  
2408 2395 2382 2369 2369 2369 2359 2336 2310 2287 2264 2231 2228 2225 2225 2231 2238 2251 2270 2293 2307 2316 2330 2330 2330 2330 2330 2326 2323 2316 2313 2310 2310 2303 2300 2310 2320 2330 2339 2352 2369 2398 2425 2454 2480 2526 2539 2556 2576 2595 2615  
2421 2408 2395 2385 2375 2372 2362 2339 2313 2290 2267 2238 2231 2228 2231 2238 2251 2267 2287 2303 2320 2330 2346 2346 2346 2346 2346 2343 2339 2336 2333 2330 2326 2320 2310 2313 2323 2330 2339 2352 2369 2392 2415 2441 2467 2517 2533 2553 2569 2589 2605  
2428 2412 2398 2389 2379 2369 2359 2339 2313 2290 2270 2238 2238 2238 2238 2251 2267 2287 2303 2320 2333 2349 2362 2362 2362 2362 2362 2362 2359 2359 2352 2349 2343 2336 2323 2323 2326 2333 2343 2352 2366 2385 2405 2428 2454 2507 2523 2546 2566 2579 2592  
2428 2408 2395 2385 2379 2369 2356 2336 2313 2290 2270 2247 2247 2247 2251 2261 2280 2303 2323 2336 2349 2362 2375 2379 2379 2379 2382 2379 2379 2375 2369 2366 2362 2356 2339 2336 2336 2343 2346 2352 2362 2379 2398 2418 2444 2497 2520 2539 2553 2566 2582  
2425 2405 2392 2385 2375 2362 2349 2330 2307 2287 2274 2267 2267 2264 2264 2274 2293 2316 2336 2349 2362 2372 2385 2392 2395 2395 2398 2395 2392 2389 2382 2379 2375 2372 2359 2352 2349 2352 2352 2356 2362 2379 2398 2418 2444 2497 2517 2530 2543 2556 2576  
2418 2398 2389 2382 2372 2359 2343 2323 2303 2287 2277 2284 2287 2284 2280 2284 2303 2323 2346 2359 2372 2382 2398 2405 2408 2412 2412 2412 2405 2402 2395 2392 2389 2385 2369 2366 2362 2362 2362 2362 2369 2379 2395 2418 2444 2490 2507 2517 2536 2553 2572  
2412 2395 2389 2379 2369 2356 2339 2323 2307 2293 2290 2300 2303 2300 2300 2303 2313 2330 2352 2366 2379 2392 2412 2418 2425 2428 2428 2428 2421 2418 2415 2408 2405 2398 2382 2379 2375 2375 2375 2375 2375 2382 2392 2412 2435 2480 2497 2513 2533 2553 2569  
2408 2395 2389 2379 2369 2356 2339 2323 2310 2307 2307 2320 2323 2323 2323 2320 2323 2339 2359 2372 2385 2395 2421 2431 2438 2441 2441 2444 2438 2435 2435 2428 2421 2412 2395 2389 2389 2389 2389 2385 2385 2389 2395 2405 2425 2464 2487 2510 2533 2549 2569  
2412 2398 2392 2382 2369 2356 2339 2323 2313 2313 2320 2333 2339 2339 2339 2339 2343 2349 2366 2375 2389 2402 2428 2441 2448 2454 2457 2457 2454 2454 2451 2444 2438 2428 2408 2402 2398 2402 2402 2398 2395 2398 2402 2412 2421 2454 2484 2507 2530 2546 2566  
2418 2408 2402 2389 2372 2356 2339 2326 2323 2326 2333 2349 2356 2359 2362 2362 2362 2362 2369 2382 2392 2405 2438 2448 2461 2467 2471 2474 2474 2471 2467 2461 2454 2444 2425 2418 2415 2415 2415 2415 2412 2412 2421 2431 2438 2457 2480 2503 2523 2543 2559  
2425 2415 2402 2389 2372 2359 2352 2352 2359 2366 2372 2382 2385 2392 2392 2395 2392 2389 2392 2395 2398 2408 2444 2461 2477 2490 2494 2500 2503 2500 2497 2490 2480 2471 2454 2451 2448 2451 2451 2451 2454 2454 2457 2467 2474 2494 2503 2513 2520 2536 2556  
2421 2412 2402 2385 2369 2359 2359 2366 2372 2379 2385 2395 2402 2405 2408 2408 2405 2402 2402 2408 2412 2418 2444 2464 2480 2494 2503 2513 2517 2520 2517 2507 2497 2487 2471 2467 2467 2471 2471 2474 2477 2477 2477 2480 2490 2513 2523 2530 2536 2546 2562  
2421 2408 2398 2385 2372 2366 2372 2379 2389 2395 2402 2408 2415 2421 2425 2421 2418 2418 2421 2425 2431 2435 2457 2474 2487 2500 2513 2523 2530 2533 2530 2523 2517 2507 2490 2487 2487 2490 2490 2494 2494 2497 2497 2500 2513 2536 2543 2549 2556 2566 2576  
2418 2408 2398 2389 2382 2379 2382 2392 2402 2408 2415 2425 2428 2435 2441 2441 2438 2435 2441 2444 2451 2457 2477 2490 2503 2513 2523 2533 2543 2546 2543 2536 2533 2526 2510 2507 2507 2510 2510 2513 2513 2513 2513 2520 2530 2556 2566 2572 2579 2585 2592  
2415 2405 2395 2392 2389 2389 2395 2402 2412 2421 2428 2438 2444 2451 2457 2457 2457 2454 2457 2467 2477 2484 2503 2517 2523 2530 2539 2549 2556 2559 2556 2549 2546 2539 2526 2523 2526 2530 2530 2530 2530 2533 2530 2533 2546 2576 2585 2595 2605 2612 2618  
2415 2405 2395 2395 2395 2398 2405 2412 2421 2431 2441 2454 2461 2467 2474 2480 2484 2484 2487 2494 2497 2507 2523 2533 2543 2549 2556 2562 2566 2569 2566 2562 2556 2553 2543 2539 2543 2543 2546 2546 2546 2549 2546 2549 2559 2592 2608 2618 2628 2638 2644  
2415 2405 2398 2398 2405 2408 2415 2421 2435 2444 2454 2467 2474 2484 2490 2494 2497 2500 2507 2513 2517 2526 2546 2556 2562 2566 2569 2572 2576 2579 2579 2579 2576 2572 2562 2559 2559 2559 2562 2562 2566 2566 2566 2566 2572 2605 2622 2638 2648 2651 2658  
2418 2412 2408 2412 2415 2421 2428 2435 2444 2454 2464 2480 2487 2497 2503 2510 2513 2520 2523 2530 2539 2549 2562 2569 2572 2576 2579 2582 2582 2585 2592 2599 2599 2595 2589 2585 2585 2585 2585 2585 2589 2589 2589 2592 2599 2618 2635 2648 2658 2661 2667  
2425 2421 2418 2421 2428 2435 2438 2444 2454 2467 2477 2494 2500 2507 2517 2523 2526 2533 2536 2546 2559 2566 2576 2579 2582 2585 2589 2589 2589 2592 2595 2605 2612 2612 2608 2608 2608 2608 2608 2608 2612 2615 2622 2625 2631 2641 2648 2654 2664 2671 2677  
2431 2428 2431 2435 2441 2444 2451 2457 2464 2477 2487 2503 2513 2520 2526 2533 2536 2543 2546 2553 2562 2572 2585 2589 2592 2595 2595 2595 2599 2599 2602 2612 2618 2622 2622 2622 2622 2622 2622 2622 2628 2638 2648 2651 2651 2654 2661 2667 2674 2681 2690  
2435 2438 2441 2444 2451 2457 2461 2467 2477 2487 2497 2513 2523 2530 2536 2539 2546 2553 2556 2559 2566 2579 2595 2599 2605 2608 2612 2612 2612 2615 2618 2622 2628 2635 2635 2635 2631 2631 2635 2635 2638 2644 2654 2661 2664 2664 2667 2674 2681 2690 2704  
2451 2457 2461 2467 2474 2477 2484 2487 2494 2503 2510 2526 2536 2543 2553 2559 2566 2576 2589 2595 2602 2608 2622 2628 2638 2644 2648 2651 2651 2651 2651 2651 2654 2658 2664 2661 2661 2661 2661 2664 2667 2674 2681 2684 2684 2687 2690 2697 2707 2717 2727  
2461 2467 2474 2477 2484 2487 2490 2497 2503 2510 2517 2533 2543 2549 2559 2569 2582 2595 2605 2612 2622 2628 2638 2644 2651 2658 2664 2664 2664 2664 2664 2667 2667 2674 2677 2677 2674 2674 2677 2681 2684 2694 2697 2700 2704 2704 2707 2713 2723 2727 2730  
2477 2480 2484 2490 2494 2500 2503 2507 2510 2513 2520 2546 2553 2562 2576 2592 2605 2622 2635 2644 2654 2661 2671 2674 2677 2684 2690 2697 2697 2697 2700 2700 2707 2710 2717 2717 2717 2717 2717 2720 2727 2733 2740 2740 2736 2730 2727 2720 2717 2707 2697  
2484 2487 2490 2497 2500 2503 2507 2513 2517 2520 2526 2556 2562 2576 2592 2605 2618 2631 2644 2654 2664 2674 2684 2687 2690 2694 2700 2710 2717 2717 2717 2720 2723 2730 2736 2740 2740 2740 2740 2743 2749 2756 2759 2753 2740 2720 2710 2700 2690 2681 2674  
2490 2494 2497 2500 2507 2510 2513 2520 2523 2530 2543 2566 2579 2595 2608 2615 2631 2644 2651 2658 2667 2681 2690 2694 2694 2694 2697 2710 2717 2720 2727 2736 2743 2746 2756 2756 2756 2756 2763 2763 2763 2763 2756 2740 2727 2704 2690 2677 2667 2661 2651  
2490 2494 2497 2503 2510 2517 2520 2523 2533 2543 2556 2582 2599 2605 2615 2625 2635 2641 2644 2648 2651 2664 2674 2681 2684 2684 2687 2694 2704 2713 2723 2740 2753 2763 2769 2766 2766 2763 2763 2756 2749 2736 2727 2713 2707 2684 2667 2654 2648 2638 2631  
2494 2494 2497 2503 2513 2520 2526 2530 2539 2553 2562 2589 2599 2608 2612 2615 2618 2622 2628 2631 2635 2638 2651 2654 2658 2661 2671 2677 2690 2710 2723 2740 2753 2763 2763 2759 2756 2749 2743 2733 2723 2713 2704 2694 2684 2664 2644 2628 2622 2618 2612  
2487 2490 2494 2500 2510 2520 2526 2533 2539 2549 2559 2579 2589 2599 2599 2599 2595 2599 2602 2608 2615 2618 2628 2631 2635 2638 2651 2664 2681 2704 2720 2730 2743 2746 2743 2736 2733 2727 2717 2707 2697 2690 2681 2671 2661 2638 2622 2608 2602 2599 2595  
2477 2480 2484 2490 2500 2510 2517 2526 2533 2539 2546 2562 2572 2579 2582 2579 2579 2576 2582 2589 2595 2602 2608 2612 2615 2622 2635 2654 2677 2694 2710 2720 2727 2723 2720 2717 2710 2704 2697 2687 2677 2667 2658 2648 2638 2618 2602 2589 2585 2582 2582  
2457 2464 2471 2477 2487 2494 2503 2513 2520 2523 2526 2546 2553 2559 2562 2559 2556 2553 2556 2566 2572 2579 2585 2589 2592 2602 2622 2644 2667 2681 2697 2700 2707 2704 2700 2697 2690 2684 2677 2667 2658 2644 2635 2625 2615 2599 2585 2576 2572 2569 2566  
2438 2444 2448 2461 2467 2477 2487 2497 2503 2503 2507 2523 2533 2543 2543 2539 2533 2530 2536 2543 2553 2556 2562 2562 2572 2589 2608 2638 2658 2671 2681 2684 2684 2687 2684 2677 2671 2664 2658 2648 2638 2625 2612 2605 2595 2579 2569 2559 2556 2556 2556  
2425 2428 2431 2441 2451 2461 2471 2480 2480 2480 2484 2500 2510 2520 2520 2513 2507 2507 2513 2520 2526 2533 2536 2543 2559 2582 2605 2628 2644 2658 2661 2664 2664 2664 2661 2658 2651 2641 2635 2625 2615 2602 2592 2582 2576 2562 2553 2546 2543 2543 2543  
2412 2415 2421 2425 2435 2444 2451 2457 2457 2454 2454 2474 2484 2497 2497 2490 2480 2477 2487 2497 2500 2503 2513 2526 2553 2576 2595 2615 2628 2641 2644 2644 2641 2641 2641 2635 2628 2622 2612 2602 2592 2582 2569 2562 2556 2539 2533 2526 2526 2530 2533  
2395 2402 2408 2415 2421 2428 2435 2438 2435 2428 2425 2444 2461 2471 2471 2467 2461 2461 2464 2471 2474 2477 2494 2517 2546 2569 2585 2599 2612 2622 2625 2625 2618 2622 2618 2612 2605 2599 2585 2579 2569 2559 2546 2539 2533 2523 2517 2513 2513 2517 2523  
2369 2375 2389 2398 2408 2415 2418 2421 2418 2408 2398 2418 2438 2448 2451 2444 2435 2438 2441 2441 2441 2441 2484 2507 2533 2556 2572 2582 2595 2605 2605 2605 2599 2599 2595 2589 2582 2572 2562 2556 2546 2536 2523 2513 2510 2503 2500 2503 2503 2507 2517  
2343 2352 2366 2375 2385 2392 2402 2405 2405 2398 2392 2398 2415 2428 2435 2428 2415 2408 2408 2408 2408 2415 2467 2497 2520 2539 2553 2566 2579 2585 2585 2582 2576 2576 2569 2562 2556 2546 2536 2526 2520 2513 2500 2494 2487 2484 2484 2487 2490 2500 2507  
2293 2300 2310 2316 2323 2333 2349 2362 2369 2372 2372 2382 2385 2392 2395 2392 2379 2359 2356 2356 2362 2385 2435 2457 2480 2503 2523 2533 2543 2543 2536 2530 2523 2520 2513 2507 2500 2494 2487 2484 2477 2471 2464 2457 2457 2454 2457 2461 2471 2480 2484  
2270 2277 2284 2290 2293 2307 2323 2336 2346 2352 2359 2372 2379 2379 2379 2379 2369 2356 2346 2346 2352 2369 2421 2444 2467 2490 2507 2520 2520 2513 2507 2500 2494 2490 2484 2477 2474 2467 2464 2461 2457 2454 2448 2441 2441 2441 2444 2451 2461 2471 2474  
2244 2251 2257 2264 2270 2280 2297 2310 2320 2326 2339 2362 2366 2369 2369 2366 2362 2349 2336 2339 2346 2356 2412 2435 2461 2484 2494 2494 2494 2487 2477 2471 2467 2461 2454 2451 2448 2444 2441 2438 2438 2435 2428 2425 2421 2428 2431 2441 2451 2454 2454  
2215 2221 2231 2238 2247 2261 2270 2284 2293 2297 2310 2349 2356 2359 2359 2352 2343 2330 2323 2330 2339 2349 2405 2431 2457 2474 2477 2474 2467 2457 2451 2444 2438 2431 2425 2421 2418 2418 2415 2415 2412 2412 2408 2405 2405 2408 2418 2428 2438 2441 2438  
2195 2198 2208 2215 2225 2238 2247 2257 2261 2270 2287 2326 2330 2333 2333 2323 2313 2310 2316 2330 2339 2349 2392 2421 2444 2451 2448 2441 2438 2431 2421 2415 2408 2402 2398 2392 2392 2389 2389 2392 2392 2392 2392 2389 2389 2395 2405 2415 2418 2418 2418  
2185 2182 2185 2195 2205 2218 2228 2231 2238 2251 2267 2300 2303 2307 2303 2297 2293 2300 2316 2326 2336 2346 2382 2405 2418 2418 2415 2408 2405 2398 2392 2385 2379 2375 2372 2369 2366 2366 2369 2372 2375 2375 2379 2375 2375 2382 2392 2402 2405 2402 2395  
2182 2169 2169 2175 2185 2198 2208 2211 2218 2231 2247 2277 2280 2277 2274 2267 2270 2287 2307 2323 2330 2339 2362 2379 2385 2382 2379 2375 2369 2366 2362 2359 2352 2352 2349 2346 2346 2346 2352 2356 2359 2362 2366 2362 2362 2372 2379 2385 2389 2385 2379  
2175 2162 2159 2162 2169 2182 2192 2195 2198 2208 2228 2251 2251 2247 2238 2234 2251 2274 2297 2316 2326 2333 2349 2356 2352 2349 2346 2343 2339 2336 2336 2333 2333 2333 2330 2326 2330 2333 2336 2343 2346 2349 2349 2349 2349 2359 2366 2369 2369 2366 2359  
2172 2156 2146 2146 2152 2162 2172 2179 2185 2192 2205 2228 2228 2221 2208 2211 2234 2264 2284 2303 2320 2326 2333 2330 2323 2323 2320 2320 2316 2316 2316 2316 2316 2316 2307 2303 2310 2316 2323 2330 2333 2336 2336 2336 2339 2349 2356 2362 2359 2352 2346  
2165 2149 2136 2129 2136 2146 2156 2165 2172 2179 2188 2205 2205 2198 2192 2198 2221 2244 2267 2284 2303 2320 2326 2323 2313 2307 2303 2300 2300 2300 2300 2300 2300 2300 2290 2284 2290 2297 2307 2313 2320 2323 2323 2323 2326 2339 2346 2349 2343 2339 2333  
2159 2142 2129 2120 2120 2129 2142 2149 2156 2162 2172 2185 2185 2179 2175 2188 2208 2225 2241 2261 2280 2300 2313 2313 2303 2297 2293 2290 2287 2284 2284 2280 2280 2284 2280 2274 2277 2284 2290 2300 2303 2307 2307 2310 2313 2330 2333 2333 2330 2326 2320  
2152 2136 2123 2110 2106 2113 2126 2133 2142 2149 2159 2169 2165 2162 2159 2172 2195 2211 2225 2238 2254 2277 2293 2297 2290 2287 2280 2274 2270 2267 2261 2254 2257 2264 2270 2264 2267 2274 2280 2287 2287 2290 2290 2297 2310 2326 2326 2323 2316 2310 2307  
2149 2133 2116 2100 2090 2093 2106 2116 2126 2136 2142 2152 2152 2146 2149 2162 2179 2195 2208 2218 2231 2251 2277 2280 2274 2270 2261 2254 2247 2244 2234 2225 2234 2247 2257 2257 2261 2267 2270 2274 2277 2277 2277 2287 2307 2323 2320 2313 2307 2297 2290  
2146 2129 2116 2097 2080 2077 2090 2100 2110 2123 2129 2133 2129 2129 2139 2152 2165 2182 2192 2202 2211 2228 2251 2254 2251 2247 2238 2231 2225 2215 2205 2202 2215 2234 2247 2251 2254 2257 2264 2267 2267 2270 2277 2284 2303 2316 2310 2300 2290 2284 2277  
2142 2129 2113 2093 2070 2054 2057 2067 2080 2090 2097 2097 2093 2100 2120 2133 2142 2152 2162 2172 2182 2195 2208 2211 2205 2202 2198 2195 2185 2172 2165 2172 2185 2198 2225 2241 2244 2244 2244 2244 2254 2267 2277 2287 2290 2290 2284 2274 2264 2254 2257  
2142 2126 2110 2087 2060 2041 2044 2054 2064 2074 2080 2080 2074 2083 2106 2123 2133 2142 2152 2159 2172 2182 2192 2192 2188 2185 2182 2179 2169 2159 2156 2162 2172 2182 2211 2231 2238 2234 2234 2241 2254 2267 2280 2287 2287 2280 2270 2257 2244 2238 2247  
2136 2123 2103 2080 2054 2034 2028 2038 2047 2054 2060 2057 2060 2070 2093 2110 2123 2133 2139 2149 2162 2169 2175 2179 2175 2172 2165 2162 2156 2149 2142 2152 2162 2172 2198 2211 2215 2215 2231 2244 2257 2270 2280 2287 2287 2270 2254 2241 2234 2231 2234  
2133 2120 2093 2074 2047 2024 2015 2018 2028 2038 2041 2038 2041 2060 2080 2097 2110 2120 2129 2139 2149 2159 2165 2165 2165 2159 2152 2149 2142 2133 2126 2136 2152 2165 2188 2192 2195 2205 2234 2251 2261 2274 2284 2284 2280 2254 2241 2231 2228 2228 2228  
